7.03 6.64 6.21 5.98 5.98 6.37 6.91 7.32 6.90 6.43 6.34 6.79 7.19 7.08 7.18 7.51 7.39 7.27 7.16 7.05 6.94 6.94 6.93 7.03 7.03 7.02 7.12 7.12 7.01 6.90 6.80 6.70 7.31 7.31 7.42 7.42 7.41 7.29 7.18 7.07 5.84 5.77 5.69 5.62 5.49 5.42 5.36 5.29 5.81 5.95 6.19 6.35 6.34 6.17 5.94 5.79 6.69 6.69 6.59 6.49 6.40 6.31 6.22 6.22 5.12 5.06 4.95 4.85 4.70 4.60 4.51 4.46 4.55 4.54 4.45 4.37 4.24 4.17 4.09 4.05 3.72 3.69 3.60 3.49 3.39 3.29 3.22 3.17 3.08 3.06 3.04 3.02 2.99 2.97 2.97 2.95 3.09 3.07 3.02 2.98 2.92 2.87 2.81 2.79 2.63 2.67 2.63 2.79 2.75 2.72 2.73 2.29 2.49 2.56 2.66 2.71 2.69 2.66 2.62 2.62 2.62 2.62 2.62 2.62 2.61 2.61 2.61 2.61 2.62 2.62 2.64 2.65 2.66 2.68 2.69 2.69 2.74 2.74 2.75 2.79 2.80 2.82 2.83 2.85 2.91 2.92 2.96 3.00 3.06 3.10 3.12 3.14 3.18 3.16 3.14 3.09 3.05 3.00 2.98 2.96 2.86 2.86 2.82 2.75 2.89 2.50 2.43 3.95 5.70 4.52 3.81 3.71 3.81 3.84 3.84 3.83 3.87 4.01 4.24 4.50 4.74 4.84 4.95 4.95 4.63 4.73 4.26 4.22 4.57 4.13 3.44 3.26 3.31 3.55 3.58 3.30 3.18 3.30 3.45 3.48 4.90 4.54 4.27 4.22 4.22 4.06 3.71 3.44 6.71 4.67 2.88 2.60 2.71 2.78 3.45 4.33 3.89 3.72 4.11 4.41 3.81 3.39 3.14 2.84 9.27 60.87 13.31 9.06 13.73 10.37 9.89 12.50 10.62 12.49 6.63 9.42 3.21 1.83 2.41 2.53 2.49 2.49 2.49 2.50 2.50 2.51 2.51 2.51 2.52 2.52 2.52 2.52 2.52 2.52 2.52 2.52 2.52 2.51 2.51 2.51 2.51 2.51 2.51 2.51 2.55 2.55 2.55 2.55 2.55 2.55 2.55 2.54 2.56 2.56 2.57 2.57 2.59 2.59 2.58 2.58 2.61 2.61 2.61 2.61 2.61 2.61 2.61 2.61 2.66 2.66 2.65 2.65 2.65 2.65 2.65 2.65 2.68 2.68 2.68 2.70 2.70 2.71 2.71 2.71 2.75 2.74 2.74 2.76 2.76 2.78 2.78 2.78 2.79 2.79 2.81 2.81 2.83 2.83 2.85 2.84 2.86 2.86 2.88 2.88 2.90 2.90 2.90 2.90 2.98 2.98 2.98 2.98 2.98 2.98 2.97 2.97 3.04 3.04 3.04 3.06 3.06 3.08 3.08 3.08 3.12 3.12 3.12 3.15 3.14 3.17 3.17 3.17 3.17 3.16 3.16 3.19 3.19 3.21 3.21 3.21 3.26 3.26 3.26 3.28 3.28 3.31 3.31 3.31 3.39 3.39 3.39 3.41 3.41 3.44 3.44 3.44 3.50 3.50 3.50 3.50 3.53 3.53 3.56 3.55 3.65 3.65 3.65 3.65 3.68 3.68 3.71 3.71 3.71 3.71 3.71 3.74 3.74 3.78 3.78 3.77
4.62 4.49 4.33 4.21 4.25 4.36 4.52 4.64 4.47 4.35 4.34 4.46 4.42 4.30 4.41 4.67 4.80 4.75 4.70 4.65 4.61 4.65 4.64 4.64 4.19 4.23 4.26 4.26 4.26 4.22 4.14 4.10 3.80 3.83 3.86 3.89 3.89 3.88 3.85 3.85 4.11 4.07 4.04 4.00 3.93 3.90 3.86 3.83 3.74 3.76 3.79 3.79 3.79 3.78 3.75 3.72 3.66 3.66 3.63 3.57 3.51 3.43 3.38 3.35 3.33 3.30 3.25 3.21 3.14 3.10 3.05 3.03 2.88 2.84 2.81 2.75 2.69 2.64 2.60 2.58 2.38 2.35 2.33 2.28 2.23 2.19 2.16 2.15 2.14 2.12 2.11 2.11 2.10 2.09 2.09 2.08 2.01 2.01 2.01 2.01 2.01 2.01 2.00 2.00 2.03 2.06 2.02 2.09 2.04 2.07 2.27 2.12 2.56 2.62 2.68 2.69 2.66 2.62 2.61 2.61 2.62 2.62 2.62 2.62 2.61 2.61 2.61 2.61 2.64 2.64 2.65 2.65 2.66 2.68 2.69 2.69 2.74 2.75 2.77 2.79 2.82 2.84 2.85 2.85 2.90 2.92 2.96 3.00 3.06 3.10 3.12 3.14 3.18 3.16 3.13 3.09 3.04 3.00 2.98 2.96 2.84 2.86 2.82 2.77 2.89 2.50 2.41 3.95 5.55 4.52 3.91 3.78 3.87 3.84 3.80 3.83 3.90 4.12 4.54 5.01 5.31 5.31 5.12 5.00 4.94 4.83 4.18 4.02 4.43 4.09 3.50 3.36 2.81 2.89 3.03 3.16 3.23 3.30 3.40 3.51 4.90 4.44 4.14 4.31 4.68 4.63 3.95 3.47 6.82 4.82 2.84 2.70 2.98 3.02 3.63 3.96 3.79 3.75 4.32 4.70 3.92 3.44 3.31 3.16 12.54 85.21 12.17 8.87 14.18 10.63 9.66 12.49 9.87 10.11 6.24 10.60 3.36 1.81 2.33 2.52 2.49 2.49 2.49 2.50 2.50 2.51 2.51 2.51 2.52 2.52 2.52 2.52 2.52 2.52 2.52 2.52 2.51 2.51 2.51 2.51 2.51 2.51 2.51 2.51 2.55 2.55 2.55 2.55 2.55 2.55 2.55 2.54 2.56 2.56 2.57 2.57 2.59 2.59 2.58 2.58 2.61 2.61 2.61 2.61 2.61 2.61 2.61 2.61 2.66 2.65 2.65 2.65 2.65 2.65 2.65 2.65 2.68 2.68 2.68 2.70 2.70 2.71 2.71 2.71 2.75 2.74 2.74 2.76 2.76 2.78 2.78 2.77 2.79 2.79 2.81 2.81 2.83 2.83 2.84 2.84 2.86 2.86 2.88 2.88 2.90 2.90 2.90 2.90 2.98 2.98 2.98 2.98 2.98 2.97 2.97 2.97 3.04 3.04 3.04 3.06 3.06 3.08 3.08 3.08 3.12 3.12 3.12 3.14 3.14 3.17 3.17 3.17 3.16 3.16 3.16 3.19 3.19 3.21 3.21 3.21 3.26 3.26 3.26 3.28 3.28 3.31 3.31 3.31 3.39 3.39 3.39 3.41 3.41 3.44 3.44 3.44 3.50 3.50 3.50 3.50 3.53 3.52 3.55 3.55 3.65 3.65 3.65 3.65 3.68 3.68 3.71 3.71 3.71 3.71 3.71 3.74 3.74 3.78 3.77 3.77
5.92 5.77 5.70 5.57 5.56 5.69 5.82 5.89 5.68 5.61 5.61 5.67 5.35 5.06 5.28 5.79 5.52 5.52 5.45 5.39 5.44 5.44 5.50 5.56 5.62 5.68 5.75 5.81 5.74 5.67 5.53 5.47 5.00 5.05 5.10 5.16 5.21 5.21 5.20 5.14 4.93 4.92 4.97 4.97 5.02 5.02 5.07 5.06 4.95 4.90 4.75 4.70 4.69 4.74 4.88 4.93 4.78 4.73 4.68 4.58 4.49 4.36 4.28 4.24 4.52 4.48 4.43 4.35 4.26 4.18 4.14 4.11 3.86 3.80 3.70 3.59 3.48 3.37 3.30 3.25 3.23 3.22 3.18 3.15 3.11 3.07 3.04 3.04 2.96 2.94 2.94 2.92 2.92 2.90 2.90 2.89 2.87 2.87 2.85 2.85 2.83 2.81 2.81 2.79 2.66 2.72 2.67 2.75 2.58 2.58 2.98 2.85 2.60 2.65 2.67 2.67 2.64 2.61 2.61 2.61 2.62 2.62 2.62 2.61 2.61 2.61 2.61 2.61 2.64 2.64 2.65 2.66 2.68 2.69 2.69 2.71 2.74 2.75 2.77 2.79 2.82 2.84 2.85 2.87 2.90 2.92 2.96 3.00 3.06 3.10 3.12 3.14 3.18 3.16 3.13 3.09 3.04 3.00 2.98 2.96 2.84 2.86 2.82 2.77 2.89 2.51 2.41 3.92 5.48 4.57 3.95 3.87 3.91 3.87 3.80 3.83 3.70 4.16 5.01 6.06 6.60 6.05 5.24 4.73 5.80 5.43 4.43 4.17 4.62 4.43 3.84 3.73 2.46 2.42 2.62 3.09 3.35 3.22 3.30 3.60 4.74 4.27 4.06 4.49 5.25 5.25 4.26 3.55 7.54 5.05 2.88 2.96 3.66 3.69 4.16 3.93 3.96 4.00 4.75 5.09 4.07 3.47 3.39 3.31 15.22 141.98 11.51 8.87 14.67 10.63 9.66 12.87 9.23 9.03 6.06 12.11 3.50 1.80 2.28 2.50 2.49 2.49 2.49 2.50 2.50 2.51 2.51 2.51 2.52 2.52 2.52 2.52 2.52 2.52 2.52 2.52 2.51 2.51 2.51 2.51 2.51 2.51 2.51 2.51 2.55 2.55 2.55 2.55 2.55 2.55 2.54 2.54 2.56 2.56 2.57 2.57 2.59 2.58 2.58 2.58 2.61 2.61 2.61 2.61 2.61 2.61 2.61 2.61 2.66 2.65 2.65 2.65 2.65 2.65 2.65 2.65 2.68 2.68 2.68 2.70 2.69 2.71 2.71 2.71 2.74 2.74 2.74 2.76 2.76 2.78 2.78 2.77 2.79 2.79 2.81 2.81 2.83 2.83 2.84 2.84 2.86 2.86 2.88 2.88 2.90 2.90 2.90 2.90 2.98 2.98 2.98 2.98 2.98 2.97 2.97 2.97 3.04 3.04 3.04 3.06 3.06 3.08 3.08 3.08 3.12 3.12 3.12 3.14 3.14 3.17 3.17 3.16 3.16 3.16 3.16 3.19 3.18 3.21 3.21 3.21 3.26 3.26 3.26 3.28 3.28 3.31 3.31 3.30 3.39 3.39 3.39 3.41 3.41 3.44 3.44 3.44 3.50 3.50 3.50 3.49 3.52 3.52 3.55 3.55 3.65 3.65 3.65 3.65 3.68 3.68 3.71 3.71 3.71 3.71 3.71 3.74 3.74 3.77 3.77 3.77
5.58 5.57 5.51 5.50 5.50 5.56 5.68 5.68 5.61 5.67 5.88 6.02 6.09 6.01 6.01 5.93 5.78 5.71 5.64 5.57 5.57 5.63 5.69 5.76 6.45 6.36 6.20 5.96 5.74 5.54 5.41 5.34 4.95 5.00 5.05 5.10 5.21 5.26 5.32 5.38 5.20 5.19 5.13 5.07 5.07 5.12 5.18 5.17 5.06 5.06 5.00 4.94 4.89 4.83 4.78 4.78 4.73 4.73 4.72 4.72 4.67 4.62 4.53 4.48 4.44 4.43 4.39 4.35 4.22 4.07 3.97 3.86 3.74 3.74 3.70 3.64 3.58 3.50 3.45 3.39 3.27 3.25 3.22 3.18 3.11 3.07 3.02 3.00 2.92 2.92 2.92 2.90 2.90 2.88 2.88 2.87 2.82 2.82 2.82 2.81 2.81 2.81 2.81 2.81 2.74 2.74 2.74 2.73 2.73 2.73 2.73 2.73 2.71 2.71 2.71 2.69 2.69 2.67 2.67 2.67 2.67 2.66 2.66 2.66 2.66 2.66 2.66 2.65 2.65 2.65 2.67 2.68 2.69 2.71 2.71 2.72 2.79 2.79 2.80 2.84 2.85 2.87 2.89 2.91 2.96 2.96 3.00 3.02 3.06 3.10 3.12 3.14 3.21 3.18 3.16 3.11 3.06 3.02 3.00 2.98 2.90 2.84 2.88 2.77 2.78 2.52 2.49 3.69 5.62 4.38 3.81 3.84 3.94 3.80 3.70 3.80 4.08 3.76 4.00 4.32 4.07 4.07 4.27 4.14 4.62 4.57 4.48 4.38 4.38 4.38 4.42 4.47 3.11 3.43 3.57 3.43 3.48 3.82 3.92 3.72 3.75 3.81 3.88 3.81 3.65 3.44 3.28 3.18 4.43 4.17 3.55 3.43 3.93 4.00 3.63 3.60 3.72 3.62 3.39 3.36 3.34 3.05 3.23 4.22 53.26 17.74 11.20 10.64 11.49 11.49 11.80 12.49 13.69 5.66 5.97 16.30 3.12 1.82 2.48 2.47 2.53 2.53 2.53 2.53 2.53 2.53 2.53 2.52 2.52 2.52 2.52 2.52 2.52 2.52 2.52 2.51 2.56 2.56 2.56 2.56 2.56 2.55 2.55 2.55 2.57 2.57 2.58 2.58 2.59 2.59 2.59 2.59 2.57 2.57 2.59 2.59 2.60 2.60 2.60 2.61 2.65 2.65 2.64 2.64 2.64 2.64 2.64 2.64 2.69 2.69 2.69 2.69 2.69 2.68 2.68 2.68 2.70 2.70 2.71 2.71 2.73 2.73 2.73 2.73 2.74 2.74 2.74 2.76 2.76 2.78 2.77 2.77 2.83 2.83 2.83 2.85 2.85 2.86 2.86 2.86 2.92 2.92 2.92 2.94 2.94 2.96 2.96 2.96 2.98 2.98 3.00 3.00 3.02 3.02 3.04 3.04 3.06 3.06 3.08 3.08 3.10 3.10 3.10 3.10 3.12 3.12 3.12 3.14 3.14 3.17 3.17 3.16 3.19 3.19 3.21 3.21 3.24 3.23 3.26 3.26 3.34 3.34 3.34 3.34 3.33 3.33 3.33 3.33 3.42 3.41 3.41 3.44 3.44 3.47 3.47 3.47 3.56 3.56 3.56 3.56 3.55 3.55 3.55 3.55 3.62 3.65 3.65 3.65 3.68 3.68 3.71 3.71 3.71 3.74 3.78 3.74 3.81 3.92 4.00 4.00
5.58 5.57 5.50 5.50 5.56 5.62 5.68 5.75 5.74 5.81 5.88 6.02 6.02 6.01 5.93 5.86 5.78 5.71 5.57 5.57 5.57 5.56 5.69 5.76 5.25 5.24 5.24 5.24 5.29 5.29 5.35 5.34 5.05 5.05 5.10 5.15 5.21 5.26 5.26 5.32 5.20 5.19 5.13 5.07 5.07 5.12 5.18 5.17 5.06 5.05 5.00 4.94 4.89 4.83 4.78 4.78 4.73 4.72 4.72 4.72 4.67 4.62 4.53 4.48 4.44 4.43 4.39 4.34 4.22 4.07 3.97 3.86 3.74 3.74 3.70 3.64 3.58 3.50 3.45 3.39 3.27 3.25 3.22 3.17 3.11 3.07 3.02 3.00 2.92 2.92 2.92 2.90 2.90 2.88 2.88 2.87 2.82 2.82 2.82 2.81 2.81 2.81 2.81 2.81 2.74 2.74 2.74 2.73 2.73 2.73 2.73 2.73 2.71 2.71 2.71 2.69 2.69 2.67 2.67 2.67 2.66 2.66 2.66 2.66 2.66 2.66 2.66 2.65 2.65 2.65 2.67 2.68 2.69 2.71 2.72 2.72 2.79 2.79 2.80 2.84 2.85 2.87 2.89 2.90 2.96 2.96 3.00 3.04 3.08 3.10 3.14 3.14 3.20 3.18 3.16 3.11 3.06 3.02 3.00 2.98 2.92 2.86 2.87 2.76 2.76 2.51 2.49 3.75 5.62 4.43 3.81 3.87 3.98 3.83 3.73 3.83 3.52 3.21 3.28 3.40 3.27 3.37 3.66 3.65 3.27 3.24 3.19 3.17 3.14 3.14 3.16 3.18 3.61 3.93 4.00 3.69 3.63 3.89 3.96 3.75 3.92 3.85 3.84 3.91 3.95 3.84 3.58 3.38 5.30 5.30 4.71 4.71 5.49 5.10 4.16 3.89 3.29 3.26 3.19 3.28 3.26 2.94 3.11 4.06 30.43 15.21 10.91 10.91 11.81 11.18 10.62 10.61 13.26 5.66 5.89 14.61 3.05 1.81 2.49 2.50 2.53 2.53 2.53 2.53 2.53 2.53 2.52 2.52 2.52 2.52 2.52 2.52 2.52 2.52 2.52 2.51 2.56 2.56 2.56 2.56 2.55 2.55 2.55 2.55 2.57 2.56 2.58 2.58 2.59 2.59 2.59 2.59 2.57 2.59 2.59 2.59 2.60 2.60 2.61 2.61 2.65 2.64 2.64 2.64 2.64 2.64 2.64 2.64 2.69 2.69 2.69 2.69 2.68 2.68 2.68 2.68 2.70 2.70 2.71 2.71 2.73 2.73 2.73 2.73 2.74 2.74 2.74 2.76 2.76 2.78 2.77 2.77 2.83 2.83 2.83 2.85 2.85 2.86 2.86 2.86 2.92 2.92 2.92 2.94 2.94 2.96 2.96 2.96 2.98 2.98 3.00 3.00 3.02 3.02 3.04 3.04 3.06 3.06 3.08 3.08 3.10 3.10 3.10 3.10 3.12 3.12 3.12 3.14 3.14 3.17 3.16 3.16 3.19 3.19 3.21 3.21 3.23 3.23 3.26 3.26 3.34 3.34 3.34 3.33 3.33 3.33 3.33 3.33 3.41 3.41 3.41 3.44 3.44 3.47 3.47 3.47 3.56 3.56 3.56 3.55 3.55 3.55 3.55 3.55 3.65 3.65 3.65 3.68 3.68 3.71 3.71 3.71 3.57 3.67 3.74 3.81 3.85 3.88 3.84 3.81
5.57 5.57 5.57 5.50 5.56 5.62 5.68 5.75 5.42 5.48 5.48 5.53 5.47 5.40 5.34 5.34 5.65 5.64 5.57 5.51 5.50 5.56 5.62 5.62 5.08 5.13 5.18 5.30 5.35 5.47 5.60 5.59 5.16 5.16 5.21 5.21 5.21 5.20 5.20 5.20 5.19 5.19 5.13 5.07 5.07 5.12 5.17 5.17 5.06 5.05 5.00 4.94 4.89 4.83 4.78 4.78 4.73 4.72 4.72 4.72 4.67 4.62 4.53 4.48 4.43 4.43 4.39 4.34 4.22 4.07 3.97 3.86 3.74 3.73 3.70 3.64 3.58 3.50 3.45 3.39 3.27 3.25 3.22 3.17 3.11 3.06 3.02 3.00 2.92 2.92 2.92 2.90 2.90 2.88 2.88 2.87 2.82 2.82 2.82 2.81 2.81 2.81 2.81 2.81 2.74 2.74 2.73 2.73 2.73 2.73 2.73 2.73 2.71 2.71 2.71 2.69 2.69 2.67 2.67 2.67 2.66 2.66 2.66 2.66 2.66 2.66 2.65 2.65 2.65 2.67 2.66 2.68 2.69 2.71 2.72 2.72 2.79 2.79 2.80 2.84 2.85 2.87 2.89 2.90 2.96 2.98 3.00 3.04 3.08 3.12 3.14 3.16 3.20 3.18 3.15 3.11 3.06 3.02 3.00 2.98 2.95 2.86 2.89 2.78 2.76 2.49 2.51 3.85 5.69 4.47 3.84 3.91 4.01 3.83 3.77 3.86 3.83 3.38 3.35 3.43 3.30 3.48 3.92 4.03 4.48 4.43 4.38 4.34 4.34 4.33 4.33 4.37 5.03 5.48 5.27 4.65 4.41 4.59 4.64 4.40 4.07 3.92 3.88 4.06 4.34 4.39 4.05 3.73 4.62 4.71 4.33 4.29 4.76 4.37 3.66 3.48 4.03 4.03 4.11 4.49 4.44 3.74 4.10 6.36 25.05 14.68 11.20 11.81 12.50 11.48 10.36 9.87 12.48 5.58 5.81 13.24 2.96 1.80 2.50 2.53 2.53 2.53 2.53 2.53 2.53 2.53 2.52 2.52 2.52 2.52 2.52 2.52 2.52 2.52 2.51 2.51 2.56 2.56 2.56 2.56 2.55 2.55 2.55 2.55 2.57 2.56 2.58 2.58 2.59 2.59 2.59 2.59 2.59 2.59 2.59 2.60 2.60 2.62 2.61 2.61 2.65 2.64 2.64 2.64 2.64 2.64 2.64 2.64 2.69 2.69 2.69 2.69 2.68 2.68 2.68 2.68 2.70 2.70 2.71 2.71 2.73 2.73 2.73 2.73 2.74 2.74 2.74 2.76 2.76 2.77 2.77 2.77 2.83 2.83 2.83 2.85 2.84 2.86 2.86 2.86 2.92 2.92 2.92 2.94 2.94 2.96 2.96 2.96 2.98 2.98 3.00 3.00 3.02 3.02 3.04 3.04 3.06 3.06 3.08 3.08 3.10 3.10 3.10 3.10 3.12 3.12 3.12 3.14 3.14 3.16 3.16 3.16 3.19 3.19 3.21 3.21 3.23 3.23 3.26 3.26 3.34 3.34 3.33 3.33 3.33 3.33 3.33 3.33 3.41 3.41 3.41 3.44 3.44 3.47 3.47 3.47 3.56 3.56 3.55 3.55 3.55 3.55 3.55 3.55 3.65 3.65 3.68 3.68 3.68 3.71 3.71 3.71 3.61 3.64 3.77 3.92 3.96 3.84 3.74 3.70
5.64 5.63 5.57 5.56 5.56 5.69 5.75 5.75 5.54 5.54 5.47 5.41 5.35 5.28 5.22 5.16 5.65 5.58 5.57 5.57 5.57 5.56 5.56 5.62 5.62 5.61 5.61 5.61 5.54 5.53 5.53 5.53 5.34 5.27 5.27 5.27 5.21 5.15 5.14 5.14 5.19 5.19 5.13 5.07 5.07 5.12 5.17 5.17 5.06 5.05 5.00 4.94 4.89 4.83 4.78 4.78 4.73 4.72 4.72 4.72 4.67 4.62 4.53 4.48 4.43 4.43 4.39 4.34 4.22 4.07 3.96 3.86 3.74 3.73 3.70 3.64 3.58 3.50 3.44 3.39 3.27 3.24 3.22 3.17 3.11 3.06 3.02 3.00 2.92 2.92 2.92 2.90 2.90 2.88 2.88 2.87 2.82 2.82 2.82 2.81 2.81 2.81 2.81 2.81 2.74 2.74 2.73 2.73 2.73 2.73 2.73 2.73 2.71 2.71 2.71 2.69 2.69 2.67 2.67 2.67 2.66 2.66 2.66 2.66 2.66 2.66 2.65 2.65 2.67 2.67 2.68 2.69 2.71 2.72 2.72 2.74 2.79 2.79 2.80 2.84 2.85 2.87 2.89 2.90 2.98 2.98 3.02 3.06 3.08 3.12 3.16 3.16 3.20 3.18 3.15 3.11 3.06 3.02 3.00 2.98 2.99 2.86 2.89 2.80 2.76 2.48 2.52 4.06 5.69 4.47 3.87 3.91 4.01 3.87 3.77 3.86 4.24 3.70 3.66 3.76 3.57 3.72 4.18 4.30 4.94 4.93 4.93 4.87 4.87 4.87 4.87 4.92 4.97 5.21 4.97 4.45 4.19 4.32 4.40 4.27 4.90 4.84 4.89 5.18 5.44 5.51 5.18 4.94 5.65 5.50 4.66 4.37 4.87 4.81 4.46 4.60 4.97 4.91 5.08 5.85 5.54 4.35 5.07 11.51 32.75 16.37 11.82 12.15 12.88 12.14 11.17 10.88 11.46 5.58 5.81 12.10 2.90 1.80 2.52 2.56 2.53 2.53 2.53 2.53 2.53 2.52 2.52 2.52 2.52 2.52 2.52 2.52 2.52 2.52 2.51 2.51 2.56 2.56 2.56 2.55 2.55 2.55 2.55 2.55 2.56 2.56 2.58 2.58 2.59 2.59 2.59 2.59 2.59 2.59 2.60 2.60 2.62 2.61 2.61 2.63 2.64 2.64 2.64 2.64 2.64 2.64 2.64 2.64 2.69 2.69 2.69 2.68 2.68 2.68 2.68 2.68 2.70 2.70 2.71 2.71 2.73 2.73 2.73 2.73 2.74 2.74 2.74 2.76 2.76 2.77 2.77 2.77 2.83 2.83 2.83 2.84 2.84 2.86 2.86 2.86 2.92 2.92 2.92 2.94 2.94 2.96 2.96 2.96 2.98 2.98 3.00 3.00 3.02 3.02 3.04 3.04 3.06 3.06 3.08 3.08 3.10 3.10 3.10 3.10 3.12 3.12 3.12 3.14 3.14 3.16 3.16 3.16 3.19 3.18 3.21 3.21 3.23 3.23 3.26 3.26 3.34 3.33 3.33 3.33 3.33 3.33 3.33 3.33 3.41 3.41 3.41 3.44 3.44 3.47 3.47 3.47 3.56 3.56 3.55 3.55 3.55 3.55 3.55 3.55 3.68 3.68 3.68 3.68 3.71 3.71 3.74 3.74 3.78 3.74 3.85 4.00 4.04 3.84 3.77 3.81
5.70 5.63 5.63 5.63 5.62 5.69 5.75 5.81 6.18 6.10 6.02 5.94 5.80 5.72 5.72 5.65 5.58 5.64 5.64 5.63 5.63 5.63 5.62 5.55 5.62 5.61 5.54 5.41 5.35 5.29 5.23 5.22 5.40 5.39 5.33 5.27 5.21 5.20 5.14 5.14 5.19 5.19 5.13 5.07 5.07 5.12 5.17 5.17 5.06 5.05 5.00 4.94 4.89 4.83 4.78 4.78 4.73 4.72 4.72 4.72 4.67 4.62 4.52 4.48 4.43 4.43 4.39 4.34 4.22 4.07 3.96 3.86 3.74 3.73 3.70 3.64 3.58 3.50 3.44 3.39 3.27 3.24 3.22 3.17 3.11 3.06 3.02 3.00 2.92 2.92 2.92 2.90 2.90 2.88 2.87 2.87 2.82 2.82 2.81 2.81 2.81 2.81 2.81 2.81 2.74 2.74 2.73 2.73 2.73 2.73 2.73 2.73 2.71 2.71 2.70 2.69 2.69 2.67 2.67 2.66 2.66 2.66 2.66 2.66 2.66 2.66 2.65 2.65 2.67 2.68 2.68 2.69 2.71 2.72 2.74 2.74 2.79 2.79 2.80 2.84 2.85 2.87 2.89 2.90 2.98 3.00 3.02 3.06 3.10 3.14 3.16 3.18 3.20 3.18 3.15 3.11 3.06 3.02 3.00 2.97 2.99 2.84 2.87 2.82 2.78 2.48 2.56 4.34 5.69 4.42 3.84 3.87 3.97 3.83 3.76 3.86 3.73 3.38 3.43 3.57 3.37 3.40 3.62 3.59 3.32 3.31 3.31 3.34 3.33 3.33 3.33 3.30 3.46 3.52 3.46 3.30 3.22 3.29 3.37 3.39 4.10 4.31 4.53 4.58 4.43 4.34 4.38 4.47 4.66 4.66 4.08 3.86 4.28 4.46 4.46 4.91 4.03 3.85 3.95 4.40 4.06 3.28 3.91 8.35 47.30 17.73 11.49 10.90 11.80 11.80 11.47 12.12 10.87 5.65 5.97 12.10 2.86 1.80 2.53 2.56 2.53 2.53 2.53 2.53 2.53 2.52 2.52 2.52 2.52 2.52 2.52 2.52 2.52 2.52 2.51 2.51 2.56 2.56 2.56 2.55 2.55 2.55 2.55 2.55 2.56 2.56 2.58 2.58 2.59 2.59 2.59 2.59 2.60 2.60 2.60 2.62 2.62 2.63 2.63 2.63 2.64 2.64 2.64 2.64 2.64 2.64 2.64 2.64 2.69 2.69 2.68 2.68 2.68 2.68 2.68 2.68 2.70 2.70 2.71 2.71 2.73 2.73 2.73 2.72 2.74 2.74 2.74 2.76 2.76 2.77 2.77 2.77 2.83 2.83 2.83 2.84 2.84 2.86 2.86 2.86 2.92 2.92 2.92 2.94 2.94 2.96 2.96 2.96 2.98 2.97 3.00 2.99 3.02 3.01 3.04 3.04 3.06 3.06 3.08 3.08 3.10 3.10 3.10 3.10 3.12 3.12 3.12 3.14 3.14 3.16 3.16 3.16 3.19 3.18 3.21 3.21 3.23 3.23 3.26 3.26 3.34 3.33 3.33 3.33 3.33 3.33 3.33 3.33 3.41 3.41 3.41 3.44 3.44 3.47 3.47 3.46 3.56 3.55 3.55 3.55 3.55 3.55 3.55 3.55 3.68 3.68 3.71 3.71 3.74 3.74 3.74 3.74 3.92 3.77 3.77 4.00 4.00 3.81 3.81 3.96
5.70 5.70 5.63 5.63 5.69 5.75 5.82 5.81 6.26 6.18 6.02 5.87 5.79 5.79 5.79 5.78 5.64 5.71 5.70 5.77 5.77 5.69 5.69 5.62 5.49 5.48 5.42 5.41 5.41 5.41 5.40 5.40 5.40 5.39 5.33 5.33 5.26 5.20 5.20 5.14 5.19 5.19 5.13 5.07 5.07 5.12 5.17 5.17 5.05 5.05 4.99 4.94 4.88 4.83 4.78 4.78 4.72 4.72 4.72 4.72 4.67 4.62 4.52 4.48 4.43 4.43 4.39 4.34 4.22 4.07 3.96 3.86 3.73 3.73 3.70 3.64 3.58 3.50 3.44 3.39 3.27 3.24 3.22 3.17 3.11 3.06 3.02 3.00 2.92 2.92 2.92 2.90 2.90 2.88 2.87 2.87 2.82 2.82 2.81 2.81 2.81 2.81 2.81 2.81 2.74 2.73 2.73 2.73 2.73 2.73 2.73 2.73 2.71 2.71 2.70 2.69 2.68 2.67 2.67 2.66 2.66 2.66 2.66 2.66 2.66 2.66 2.65 2.65 2.68 2.68 2.70 2.71 2.73 2.74 2.74 2.75 2.79 2.79 2.80 2.84 2.85 2.87 2.89 2.90 3.00 3.00 3.04 3.08 3.10 3.14 3.18 3.18 3.20 3.18 3.15 3.11 3.06 3.02 3.00 2.97 2.97 2.80 2.84 2.82 2.78 2.48 2.61 4.66 5.54 4.38 3.80 3.84 3.94 3.80 3.70 3.79 3.63 3.35 3.54 3.79 3.57 3.51 3.62 3.50 3.29 3.31 3.34 3.36 3.39 3.38 3.36 3.35 3.20 3.25 3.25 3.22 3.20 3.24 3.34 3.42 3.29 3.47 3.68 3.61 3.41 3.33 3.41 3.55 3.33 3.54 3.43 3.43 3.72 3.75 3.66 3.92 3.85 3.62 3.71 4.18 3.74 2.98 3.61 8.19 42.56 16.36 10.63 9.88 10.62 10.62 11.17 11.78 10.60 5.89 6.32 12.83 2.88 1.80 2.53 2.53 2.53 2.53 2.53 2.53 2.52 2.52 2.52 2.52 2.52 2.52 2.52 2.52 2.52 2.51 2.51 2.51 2.56 2.56 2.55 2.55 2.55 2.55 2.55 2.55 2.56 2.56 2.58 2.58 2.59 2.59 2.59 2.59 2.60 2.62 2.62 2.62 2.63 2.63 2.65 2.64 2.64 2.64 2.64 2.64 2.64 2.64 2.64 2.64 2.69 2.69 2.68 2.68 2.68 2.68 2.68 2.68 2.70 2.69 2.71 2.71 2.73 2.73 2.72 2.72 2.74 2.74 2.74 2.76 2.76 2.77 2.77 2.77 2.83 2.83 2.83 2.84 2.84 2.86 2.86 2.86 2.92 2.92 2.92 2.94 2.94 2.96 2.96 2.95 2.98 2.97 3.00 2.99 3.02 3.01 3.04 3.03 3.06 3.06 3.08 3.08 3.10 3.10 3.10 3.10 3.12 3.12 3.12 3.14 3.14 3.16 3.16 3.16 3.18 3.18 3.21 3.21 3.23 3.23 3.26 3.25 3.33 3.33 3.33 3.33 3.33 3.33 3.33 3.33 3.41 3.41 3.41 3.44 3.44 3.47 3.46 3.46 3.55 3.55 3.55 3.55 3.55 3.55 3.55 3.55 3.71 3.71 3.71 3.74 3.74 3.74 3.78 3.77 3.88 3.70 3.77 4.08 4.12 3.84 3.80 4.03
5.70 5.70 5.69 5.62 5.69 5.75 5.82 5.88 5.88 5.81 5.67 5.53 5.46 5.46 5.52 5.58 5.71 5.78 5.84 5.91 5.91 5.83 5.76 5.68 5.61 5.61 5.61 5.60 5.60 5.60 5.66 5.66 5.40 5.33 5.33 5.32 5.32 5.26 5.26 5.25 5.19 5.19 5.13 5.07 5.07 5.12 5.17 5.17 5.05 5.05 4.99 4.94 4.88 4.83 4.78 4.78 4.72 4.72 4.72 4.72 4.66 4.62 4.52 4.48 4.43 4.43 4.38 4.34 4.22 4.07 3.96 3.86 3.73 3.73 3.70 3.64 3.58 3.50 3.44 3.39 3.27 3.24 3.22 3.17 3.11 3.06 3.02 3.00 2.92 2.92 2.92 2.90 2.90 2.88 2.87 2.87 2.82 2.82 2.81 2.81 2.81 2.81 2.81 2.81 2.74 2.73 2.73 2.73 2.73 2.73 2.73 2.72 2.71 2.71 2.70 2.69 2.68 2.67 2.67 2.66 2.66 2.66 2.66 2.66 2.66 2.65 2.65 2.65 2.68 2.68 2.69 2.71 2.72 2.74 2.76 2.75 2.79 2.78 2.80 2.83 2.85 2.87 2.89 2.90 3.00 3.02 3.04 3.08 3.12 3.16 3.18 3.20 3.20 3.18 3.15 3.11 3.06 3.02 3.00 2.97 2.95 2.76 2.82 2.82 2.80 2.48 2.66 5.04 5.47 4.33 3.74 3.80 3.90 3.77 3.67 3.76 3.79 3.54 3.86 4.23 3.99 3.95 4.06 3.88 3.68 3.74 3.77 3.84 3.87 3.83 3.80 3.80 3.60 3.63 3.72 3.75 3.72 3.72 3.78 3.88 3.62 3.78 3.91 3.87 3.74 3.67 3.73 3.80 3.73 4.16 4.20 4.24 4.60 4.41 4.15 4.41 4.23 3.99 4.27 5.14 4.44 3.28 4.06 12.90 32.74 15.75 10.90 10.62 11.18 11.17 10.61 10.88 10.34 6.05 6.72 14.11 2.90 1.81 2.53 2.50 2.53 2.53 2.53 2.53 2.52 2.52 2.52 2.52 2.52 2.52 2.52 2.52 2.52 2.51 2.51 2.51 2.56 2.56 2.55 2.55 2.55 2.55 2.55 2.55 2.56 2.56 2.58 2.58 2.59 2.59 2.59 2.59 2.62 2.62 2.62 2.63 2.63 2.65 2.65 2.64 2.64 2.64 2.64 2.64 2.64 2.64 2.64 2.64 2.69 2.68 2.68 2.68 2.68 2.68 2.68 2.68 2.70 2.69 2.71 2.71 2.73 2.73 2.72 2.72 2.74 2.74 2.74 2.76 2.75 2.77 2.77 2.77 2.83 2.83 2.82 2.84 2.84 2.86 2.86 2.86 2.92 2.92 2.92 2.94 2.94 2.96 2.96 2.95 2.97 2.97 2.99 2.99 3.01 3.01 3.03 3.03 3.06 3.05 3.08 3.08 3.10 3.10 3.10 3.10 3.12 3.12 3.12 3.14 3.14 3.16 3.16 3.16 3.18 3.18 3.21 3.21 3.23 3.23 3.25 3.25 3.33 3.33 3.33 3.33 3.33 3.33 3.33 3.33 3.41 3.41 3.41 3.44 3.44 3.46 3.46 3.46 3.55 3.55 3.55 3.55 3.55 3.55 3.55 3.55 3.71 3.71 3.71 3.74 3.74 3.78 3.77 3.77 3.85 3.74 4.00 4.65 4.70 4.16 3.92 4.07
5.77 5.70 5.69 5.69 5.69 5.75 5.82 5.88 5.95 5.88 5.73 5.59 5.59 5.59 5.65 5.71 5.78 5.85 5.91 5.98 5.98 5.90 5.83 5.75 5.75 5.68 5.61 5.54 5.41 5.34 5.28 5.28 5.33 5.33 5.33 5.32 5.32 5.32 5.31 5.31 5.19 5.19 5.13 5.07 5.07 5.12 5.17 5.17 5.05 5.05 4.99 4.94 4.88 4.83 4.78 4.77 4.72 4.72 4.72 4.71 4.66 4.62 4.52 4.48 4.43 4.43 4.38 4.34 4.22 4.07 3.96 3.86 3.73 3.73 3.70 3.64 3.58 3.50 3.44 3.39 3.27 3.24 3.22 3.17 3.11 3.06 3.02 3.00 2.92 2.92 2.92 2.90 2.89 2.87 2.87 2.87 2.82 2.81 2.81 2.81 2.81 2.81 2.81 2.80 2.74 2.73 2.73 2.73 2.73 2.73 2.73 2.72 2.71 2.70 2.70 2.69 2.68 2.67 2.66 2.66 2.66 2.66 2.66 2.66 2.66 2.65 2.65 2.65 2.68 2.70 2.69 2.71 2.72 2.74 2.75 2.75 2.79 2.78 2.80 2.83 2.85 2.87 2.88 2.90 3.00 3.02 3.04 3.08 3.12 3.16 3.18 3.20 3.20 3.18 3.15 3.11 3.06 3.02 3.00 2.97 2.93 2.75 2.80 2.81 2.80 2.49 2.69 5.22 5.41 4.29 3.71 3.77 3.87 3.73 3.64 3.73 3.52 3.30 3.57 3.92 3.78 3.78 3.95 3.81 3.53 3.59 3.64 3.70 3.70 3.70 3.67 3.64 3.57 3.60 3.69 3.75 3.69 3.62 3.62 3.71 3.78 3.78 3.77 3.84 3.87 3.87 3.83 3.80 3.57 3.90 3.83 3.72 3.89 3.75 3.62 3.92 3.88 3.74 4.18 5.27 4.49 3.20 3.94 12.16 30.39 16.36 12.14 12.50 13.27 12.48 10.88 10.60 10.34 6.23 7.06 15.12 2.92 1.81 2.53 2.47 2.53 2.53 2.53 2.53 2.52 2.52 2.52 2.52 2.52 2.52 2.52 2.52 2.51 2.51 2.51 2.51 2.56 2.56 2.55 2.55 2.55 2.55 2.55 2.55 2.56 2.56 2.58 2.58 2.59 2.59 2.59 2.59 2.62 2.62 2.62 2.63 2.63 2.65 2.64 2.64 2.64 2.64 2.64 2.64 2.64 2.64 2.64 2.64 2.69 2.68 2.68 2.68 2.68 2.68 2.68 2.68 2.69 2.69 2.71 2.71 2.73 2.72 2.72 2.72 2.74 2.74 2.74 2.76 2.75 2.77 2.77 2.77 2.83 2.82 2.82 2.84 2.84 2.86 2.86 2.86 2.92 2.92 2.92 2.94 2.94 2.96 2.95 2.95 2.97 2.97 2.99 2.99 3.01 3.01 3.03 3.03 3.06 3.05 3.08 3.08 3.10 3.10 3.10 3.09 3.12 3.12 3.12 3.14 3.14 3.16 3.16 3.16 3.18 3.18 3.21 3.21 3.23 3.23 3.25 3.25 3.33 3.33 3.33 3.33 3.33 3.33 3.33 3.33 3.41 3.41 3.41 3.44 3.44 3.46 3.46 3.46 3.55 3.55 3.55 3.55 3.55 3.55 3.55 3.55 3.71 3.71 3.74 3.74 3.78 3.77 3.77 3.81 3.84 3.84 4.34 5.40 5.47 4.54 4.12 4.20
5.57 5.57 5.56 5.62 5.69 5.68 5.75 5.74 5.81 5.80 5.80 5.80 5.79 5.79 5.78 5.78 5.78 5.77 5.84 5.84 5.83 5.76 5.69 5.62 5.55 5.54 5.54 5.54 5.53 5.53 5.53 5.52 5.39 5.39 5.45 5.45 5.44 5.38 5.31 5.25 5.13 5.13 5.13 5.12 5.12 5.12 5.11 5.11 5.16 4.94 4.74 4.74 4.88 5.04 4.98 4.87 4.82 4.82 4.76 4.71 4.66 4.61 4.61 4.56 4.47 4.43 4.38 4.34 4.22 4.14 4.03 3.99 3.73 3.70 3.67 3.61 3.55 3.50 3.44 3.41 3.34 3.31 3.26 3.19 3.13 3.06 3.02 3.00 2.92 2.92 2.92 2.90 2.89 2.87 2.87 2.87 2.83 2.83 2.83 2.83 2.81 2.81 2.79 2.79 2.77 2.77 2.77 2.76 2.76 2.76 2.76 2.76 2.69 2.69 2.69 2.69 2.68 2.68 2.68 2.68 2.68 2.68 2.67 2.67 2.67 2.67 2.67 2.67 2.68 2.70 2.69 2.71 2.72 2.74 2.75 2.75 2.84 2.86 2.87 2.89 2.93 2.94 2.96 2.98 3.02 3.04 3.06 3.10 3.14 3.18 3.20 3.23 3.30 3.27 3.22 3.17 3.10 3.06 3.02 2.99 2.97 2.85 2.75 2.91 2.76 2.31 2.79 6.44 4.76 4.09 3.80 3.90 3.90 3.61 3.52 3.63 3.54 3.66 3.85 3.99 3.99 3.85 3.65 3.53 3.50 3.56 3.61 3.67 3.70 3.64 3.58 3.52 3.79 3.72 3.69 3.69 3.72 3.78 3.88 3.92 3.65 3.74 3.84 3.87 3.91 4.09 4.47 4.87 4.76 4.71 4.56 4.37 4.28 4.15 4.11 4.11 4.36 3.95 4.14 4.22 4.10 2.55 5.75 25.04 14.18 12.88 11.49 11.18 11.48 11.47 10.88 10.34 9.42 13.24 10.86 11.75 2.68 1.80 2.71 2.43 2.48 2.50 2.64 2.63 2.49 2.52 2.45 2.18 2.11 2.09 2.05 2.01 1.97 1.93 1.92 1.91 1.99 2.02 2.15 2.31 2.42 2.46 2.55 2.66 2.69 2.53 2.51 2.62 2.64 2.53 2.56 2.72 2.62 2.62 2.62 2.61 2.61 2.61 2.61 2.61 2.64 2.64 2.64 2.64 2.64 2.64 2.64 2.63 2.67 2.67 2.67 2.68 2.68 2.70 2.70 2.69 2.71 2.71 2.71 2.71 2.71 2.71 2.71 2.70 2.80 2.79 2.79 2.79 2.79 2.79 2.79 2.79 2.84 2.84 2.84 2.86 2.86 2.88 2.88 2.88 2.88 2.90 2.90 2.91 2.93 2.95 2.98 2.97 3.02 3.02 3.02 3.04 3.04 3.06 3.06 3.06 3.08 3.08 3.10 3.10 3.12 3.12 3.14 3.14 3.14 3.14 3.14 3.16 3.16 3.19 3.18 3.18 3.18 3.18 3.21 3.20 3.23 3.23 3.25 3.25 3.30 3.30 3.33 3.33 3.36 3.36 3.38 3.38 3.44 3.44 3.47 3.47 3.49 3.49 3.52 3.52 3.58 3.58 3.61 3.61 3.65 3.64 3.68 3.68 3.74 3.74 3.78 3.78 3.81 3.81 3.85 3.84 4.04 3.84 3.67 4.59 7.26 7.13 4.99 4.39
5.63 5.63 5.63 5.62 5.68 5.68 5.68 5.67 5.81 5.80 5.80 5.80 5.79 5.79 5.78 5.78 5.78 5.77 5.84 5.84 5.83 5.76 5.69 5.62 5.55 5.54 5.54 5.54 5.53 5.53 5.53 5.52 5.39 5.39 5.45 5.44 5.44 5.38 5.31 5.25 5.13 5.13 5.13 5.12 5.12 5.12 5.11 5.11 5.28 5.05 4.89 4.88 5.04 5.15 5.09 5.03 4.82 4.82 4.76 4.71 4.66 4.61 4.61 4.56 4.47 4.47 4.42 4.34 4.26 4.14 4.03 3.99 3.76 3.73 3.70 3.61 3.55 3.47 3.42 3.39 3.34 3.31 3.26 3.19 3.13 3.06 3.02 3.00 2.92 2.92 2.92 2.90 2.89 2.87 2.87 2.87 2.83 2.83 2.83 2.83 2.81 2.81 2.79 2.79 2.77 2.77 2.76 2.76 2.76 2.76 2.76 2.76 2.69 2.69 2.69 2.68 2.68 2.68 2.68 2.68 2.68 2.68 2.67 2.67 2.67 2.67 2.67 2.67 2.68 2.69 2.69 2.71 2.72 2.74 2.75 2.75 2.84 2.85 2.87 2.89 2.92 2.94 2.96 2.98 3.02 3.04 3.06 3.10 3.14 3.18 3.20 3.23 3.30 3.27 3.22 3.17 3.10 3.06 3.01 2.99 2.97 2.87 2.76 2.91 2.76 2.31 2.79 6.54 4.66 4.05 3.77 3.90 3.90 3.64 3.55 3.66 3.41 3.46 3.51 3.57 3.56 3.53 3.48 3.42 3.62 3.61 3.61 3.58 3.61 3.61 3.64 3.63 3.73 3.69 3.69 3.66 3.66 3.62 3.62 3.62 3.74 3.84 3.98 4.02 4.01 4.01 4.13 4.20 4.12 4.08 4.04 4.00 3.96 3.96 3.96 3.96 4.45 4.03 4.18 4.06 3.87 2.52 6.35 212.76 13.29 12.15 11.18 10.89 11.17 11.17 10.87 10.34 9.63 14.12 11.76 12.82 2.69 1.78 2.67 2.44 2.83 2.62 2.44 2.21 2.07 2.20 2.35 2.25 2.25 2.28 2.36 2.44 2.53 2.57 2.61 2.62 2.42 2.34 2.29 2.29 2.26 2.26 2.35 2.49 2.63 2.66 2.69 2.66 2.62 2.59 2.59 2.59 2.62 2.62 2.62 2.61 2.61 2.61 2.61 2.61 2.64 2.64 2.64 2.64 2.64 2.64 2.64 2.63 2.67 2.67 2.66 2.68 2.68 2.70 2.70 2.69 2.71 2.71 2.71 2.71 2.71 2.71 2.70 2.70 2.79 2.79 2.79 2.79 2.79 2.79 2.79 2.79 2.84 2.84 2.84 2.86 2.86 2.88 2.88 2.88 2.88 2.90 2.89 2.91 2.93 2.95 2.97 2.97 3.02 3.02 3.01 3.04 3.04 3.06 3.06 3.05 3.08 3.08 3.10 3.10 3.12 3.12 3.14 3.14 3.14 3.14 3.14 3.16 3.16 3.18 3.18 3.18 3.18 3.18 3.21 3.20 3.23 3.23 3.25 3.25 3.30 3.30 3.33 3.33 3.36 3.35 3.38 3.38 3.44 3.44 3.47 3.46 3.49 3.49 3.52 3.52 3.58 3.58 3.61 3.61 3.64 3.64 3.68 3.68 3.74 3.74 3.78 3.78 3.81 3.81 3.84 3.84 4.08 3.77 3.44 4.20 7.53 9.07 5.62 4.34
5.77 5.76 5.69 5.69 5.68 5.61 5.61 5.61 5.81 5.80 5.80 5.79 5.79 5.79 5.78 5.78 5.78 5.77 5.84 5.83 5.83 5.76 5.69 5.61 5.55 5.54 5.54 5.54 5.53 5.53 5.52 5.52 5.39 5.39 5.45 5.44 5.44 5.37 5.31 5.25 5.13 5.13 5.12 5.12 5.12 5.12 5.11 5.11 5.22 5.10 4.94 4.99 5.04 5.15 5.09 5.03 4.82 4.82 4.76 4.71 4.66 4.61 4.61 4.56 4.47 4.47 4.42 4.34 4.26 4.14 4.06 3.99 3.82 3.79 3.73 3.64 3.55 3.47 3.39 3.36 3.34 3.31 3.26 3.19 3.12 3.06 3.02 3.00 2.92 2.92 2.92 2.90 2.89 2.87 2.87 2.87 2.83 2.83 2.83 2.83 2.81 2.81 2.79 2.79 2.77 2.77 2.76 2.76 2.76 2.76 2.76 2.76 2.69 2.69 2.69 2.68 2.68 2.68 2.68 2.68 2.68 2.67 2.67 2.67 2.67 2.67 2.67 2.67 2.70 2.69 2.71 2.72 2.74 2.75 2.75 2.77 2.84 2.85 2.87 2.89 2.92 2.94 2.96 2.98 3.04 3.06 3.08 3.12 3.16 3.18 3.23 3.22 3.29 3.27 3.22 3.17 3.10 3.06 3.01 2.99 2.99 2.89 2.78 2.93 2.76 2.31 2.83 6.84 4.66 4.05 3.77 3.90 3.90 3.64 3.55 3.66 3.46 3.46 3.45 3.48 3.48 3.50 3.53 3.53 3.65 3.58 3.52 3.47 3.44 3.49 3.57 3.63 3.38 3.43 3.51 3.57 3.59 3.59 3.53 3.50 3.59 3.61 3.61 3.64 3.61 3.52 3.43 3.38 3.30 3.30 3.29 3.29 3.32 3.37 3.39 3.42 3.44 3.21 3.26 3.04 2.88 2.13 5.25 425.44 12.51 11.49 10.62 10.62 10.88 11.16 10.87 10.34 10.09 15.68 13.65 15.67 2.73 1.75 2.62 2.47 2.43 2.32 2.22 2.11 2.16 2.75 3.83 4.29 5.68 6.18 7.12 8.75 10.49 11.99 12.71 13.10 7.35 5.98 4.70 3.70 2.92 2.43 2.21 2.15 2.28 2.44 2.57 2.56 2.57 2.64 2.64 2.55 2.62 2.62 2.61 2.61 2.61 2.61 2.61 2.61 2.64 2.64 2.64 2.64 2.64 2.64 2.63 2.63 2.67 2.67 2.66 2.68 2.68 2.70 2.69 2.69 2.73 2.73 2.73 2.73 2.72 2.72 2.72 2.72 2.79 2.79 2.79 2.79 2.79 2.79 2.79 2.79 2.84 2.84 2.84 2.86 2.86 2.88 2.88 2.88 2.90 2.89 2.91 2.93 2.95 2.98 2.97 2.99 3.02 3.02 3.01 3.04 3.03 3.06 3.06 3.05 3.08 3.08 3.10 3.10 3.12 3.12 3.14 3.14 3.14 3.14 3.14 3.16 3.16 3.18 3.18 3.18 3.18 3.18 3.20 3.20 3.23 3.23 3.25 3.25 3.30 3.30 3.33 3.33 3.35 3.35 3.38 3.38 3.44 3.44 3.46 3.46 3.49 3.49 3.52 3.52 3.58 3.58 3.61 3.61 3.64 3.64 3.68 3.67 3.74 3.74 3.78 3.77 3.81 3.81 3.84 3.84 4.12 3.80 3.36 3.91 7.68 13.30 6.76 4.38
5.84 5.83 5.83 5.75 5.68 5.61 5.61 5.61 5.88 5.87 5.87 5.86 5.86 5.86 5.85 5.85 5.77 5.77 5.84 5.83 5.83 5.76 5.68 5.61 5.54 5.54 5.54 5.53 5.53 5.53 5.52 5.52 5.39 5.39 5.45 5.44 5.44 5.37 5.31 5.25 5.13 5.13 5.12 5.12 5.12 5.11 5.11 5.11 5.00 4.99 4.94 4.93 4.93 4.98 4.98 4.92 4.82 4.81 4.76 4.71 4.66 4.61 4.61 4.56 4.51 4.47 4.47 4.38 4.26 4.18 4.06 4.03 3.89 3.82 3.76 3.67 3.55 3.47 3.39 3.36 3.34 3.31 3.26 3.19 3.12 3.06 3.02 3.00 2.92 2.92 2.91 2.89 2.89 2.87 2.87 2.87 2.83 2.83 2.83 2.83 2.81 2.81 2.79 2.79 2.77 2.77 2.76 2.76 2.76 2.76 2.76 2.76 2.70 2.70 2.70 2.70 2.70 2.70 2.70 2.69 2.68 2.67 2.67 2.67 2.67 2.67 2.67 2.67 2.70 2.71 2.71 2.72 2.74 2.75 2.77 2.77 2.84 2.85 2.87 2.89 2.92 2.94 2.96 2.98 3.04 3.06 3.08 3.12 3.16 3.20 3.23 3.25 3.29 3.27 3.22 3.17 3.10 3.06 3.01 2.99 2.99 2.89 2.80 2.94 2.76 2.31 2.84 7.18 4.76 4.09 3.80 3.90 3.90 3.61 3.52 3.60 3.43 3.46 3.48 3.54 3.56 3.56 3.59 3.59 3.53 3.50 3.44 3.41 3.38 3.41 3.46 3.49 3.32 3.40 3.48 3.56 3.53 3.45 3.34 3.26 3.19 3.01 2.81 2.70 2.68 2.68 2.65 2.60 2.54 2.53 2.53 2.52 2.53 2.54 2.56 2.57 2.44 2.41 2.52 2.41 2.28 1.84 4.39 141.79 11.81 11.18 10.36 10.35 10.61 10.88 10.87 10.33 10.59 15.68 15.67 21.15 2.80 1.72 2.56 2.47 2.07 2.26 2.63 2.91 3.42 5.93 19.13 52.57 16.82 18.27 21.00 23.32 24.68 24.67 23.29 22.06 59.84 38.06 24.62 13.49 6.74 4.06 3.09 2.78 2.29 2.31 2.40 2.54 2.62 2.60 2.59 2.62 2.62 2.62 2.61 2.61 2.61 2.61 2.61 2.61 2.64 2.64 2.64 2.64 2.64 2.64 2.63 2.63 2.67 2.66 2.66 2.68 2.68 2.70 2.69 2.69 2.73 2.73 2.73 2.72 2.72 2.72 2.72 2.72 2.79 2.79 2.79 2.79 2.79 2.79 2.79 2.79 2.84 2.84 2.84 2.86 2.86 2.88 2.88 2.88 2.90 2.91 2.91 2.93 2.95 2.97 3.00 2.99 3.02 3.01 3.01 3.03 3.03 3.06 3.05 3.05 3.08 3.07 3.10 3.10 3.12 3.12 3.14 3.14 3.14 3.14 3.14 3.16 3.16 3.18 3.18 3.18 3.18 3.18 3.20 3.20 3.23 3.23 3.25 3.25 3.30 3.30 3.33 3.33 3.35 3.35 3.38 3.38 3.44 3.44 3.46 3.46 3.49 3.49 3.52 3.52 3.58 3.58 3.61 3.61 3.64 3.64 3.67 3.67 3.74 3.74 3.77 3.77 3.81 3.81 3.84 3.84 4.08 3.95 3.44 3.73 6.77 12.09 7.00 4.43
5.91 5.90 5.83 5.75 5.75 5.68 5.67 5.61 5.95 5.94 5.94 5.94 5.93 5.93 5.92 5.92 5.77 5.77 5.84 5.83 5.83 5.76 5.68 5.61 5.54 5.54 5.54 5.53 5.53 5.53 5.52 5.52 5.39 5.39 5.45 5.44 5.44 5.37 5.31 5.25 5.13 5.13 5.12 5.12 5.12 5.11 5.11 5.11 4.94 4.99 5.04 5.04 4.98 4.98 4.98 4.97 4.82 4.81 4.76 4.71 4.66 4.61 4.61 4.56 4.51 4.51 4.46 4.38 4.29 4.18 4.10 4.03 3.89 3.85 3.76 3.66 3.55 3.47 3.41 3.36 3.34 3.31 3.26 3.19 3.12 3.06 3.02 3.00 2.92 2.92 2.91 2.89 2.89 2.87 2.87 2.87 2.83 2.83 2.83 2.83 2.81 2.81 2.79 2.79 2.77 2.77 2.76 2.76 2.76 2.76 2.76 2.76 2.72 2.72 2.72 2.72 2.71 2.71 2.71 2.71 2.68 2.67 2.67 2.67 2.67 2.67 2.67 2.66 2.71 2.71 2.72 2.74 2.76 2.77 2.77 2.79 2.84 2.85 2.87 2.89 2.92 2.94 2.96 2.98 3.06 3.08 3.10 3.14 3.18 3.23 3.25 3.27 3.29 3.27 3.22 3.17 3.10 3.06 3.01 2.99 2.99 2.91 2.83 2.96 2.76 2.31 2.88 7.68 4.92 4.20 3.87 3.93 3.86 3.58 3.43 3.54 3.23 3.30 3.40 3.51 3.53 3.53 3.47 3.44 3.50 3.52 3.55 3.55 3.55 3.49 3.43 3.40 3.60 3.63 3.63 3.59 3.45 3.29 3.14 3.05 2.97 2.59 2.24 2.07 2.04 2.07 2.09 2.07 2.04 2.03 2.01 2.00 1.99 1.99 1.99 1.99 1.90 2.03 2.34 2.38 2.27 1.82 4.39 4252.85 11.81 11.18 10.36 10.35 10.61 10.87 10.87 10.33 10.59 15.12 16.27 32.53 2.91 1.72 2.48 2.43 2.23 2.99 5.14 7.52 8.10 14.03 38.25 24.74 8.76 8.40 7.78 7.24 6.88 6.66 6.65 6.65 6.65 7.48 9.96 13.94 13.94 10.19 8.52 8.19 3.00 2.48 2.36 2.65 2.78 2.52 2.46 2.67 2.62 2.61 2.61 2.61 2.61 2.61 2.61 2.61 2.64 2.64 2.64 2.64 2.64 2.63 2.63 2.63 2.67 2.66 2.66 2.68 2.68 2.69 2.69 2.69 2.75 2.74 2.74 2.74 2.74 2.74 2.74 2.74 2.79 2.79 2.79 2.79 2.79 2.79 2.79 2.79 2.84 2.84 2.84 2.86 2.86 2.88 2.88 2.88 2.92 2.91 2.93 2.95 2.98 3.00 2.99 3.02 3.01 3.01 3.01 3.03 3.03 3.06 3.05 3.05 3.08 3.07 3.10 3.10 3.12 3.12 3.14 3.14 3.14 3.14 3.14 3.16 3.16 3.18 3.18 3.18 3.18 3.18 3.20 3.20 3.23 3.23 3.25 3.25 3.30 3.30 3.33 3.33 3.35 3.35 3.38 3.38 3.44 3.43 3.46 3.46 3.49 3.49 3.52 3.52 3.58 3.58 3.61 3.61 3.64 3.64 3.67 3.67 3.74 3.74 3.77 3.77 3.81 3.81 3.84 3.84 3.88 4.07 3.60 3.60 5.18 7.25 5.62 4.24
5.83 5.83 5.83 5.82 5.75 5.75 5.74 5.74 5.95 5.94 5.94 5.93 5.93 5.93 5.92 5.92 5.77 5.77 5.84 5.83 5.83 5.75 5.68 5.61 5.54 5.54 5.54 5.53 5.53 5.53 5.52 5.52 5.39 5.39 5.44 5.44 5.44 5.37 5.31 5.25 5.13 5.13 5.12 5.12 5.12 5.11 5.11 5.11 5.05 5.16 5.27 5.27 5.15 5.09 5.08 5.14 4.82 4.81 4.76 4.71 4.66 4.61 4.61 4.56 4.56 4.55 4.51 4.42 4.33 4.21 4.10 4.06 3.89 3.85 3.76 3.66 3.58 3.49 3.44 3.41 3.34 3.31 3.26 3.19 3.12 3.06 3.02 3.00 2.92 2.92 2.91 2.89 2.89 2.87 2.87 2.87 2.83 2.83 2.83 2.83 2.81 2.81 2.79 2.78 2.77 2.76 2.76 2.76 2.76 2.76 2.76 2.75 2.72 2.72 2.72 2.72 2.71 2.71 2.71 2.71 2.68 2.67 2.67 2.67 2.67 2.67 2.67 2.66 2.71 2.73 2.72 2.74 2.75 2.77 2.79 2.78 2.84 2.85 2.87 2.89 2.92 2.94 2.96 2.98 3.08 3.08 3.12 3.14 3.18 3.23 3.25 3.27 3.29 3.27 3.22 3.17 3.10 3.06 3.01 2.99 2.99 2.93 2.85 2.96 2.74 2.31 2.92 8.10 4.91 4.20 3.87 3.93 3.86 3.58 3.43 3.54 3.30 3.37 3.51 3.65 3.71 3.71 3.65 3.59 3.68 3.70 3.77 3.80 3.80 3.70 3.57 3.51 3.54 3.54 3.54 3.53 3.50 3.47 3.44 3.44 3.12 2.56 2.10 1.89 1.87 1.92 1.94 1.93 1.93 1.92 1.91 1.89 1.89 1.89 1.89 1.89 1.79 2.00 2.45 2.55 2.38 1.82 4.17 53.15 12.50 11.48 10.61 10.61 10.88 11.16 10.87 10.33 10.33 12.82 15.11 60.40 3.08 1.73 2.43 2.36 2.40 3.98 15.61 105.30 17.54 12.75 10.79 7.38 9.34 8.94 8.23 7.77 7.77 8.06 8.55 9.11 6.86 6.44 6.44 6.86 7.46 8.53 11.29 17.39 4.17 2.64 2.22 2.53 2.78 2.51 2.45 2.74 2.62 2.61 2.61 2.61 2.61 2.61 2.61 2.61 2.64 2.64 2.64 2.64 2.64 2.63 2.63 2.63 2.66 2.66 2.66 2.68 2.68 2.69 2.69 2.69 2.75 2.74 2.74 2.74 2.74 2.74 2.74 2.74 2.79 2.79 2.79 2.79 2.79 2.79 2.79 2.79 2.84 2.84 2.84 2.86 2.86 2.88 2.88 2.87 2.91 2.93 2.93 2.95 2.97 3.00 3.02 3.02 3.01 3.01 3.01 3.03 3.03 3.05 3.05 3.05 3.07 3.07 3.10 3.09 3.12 3.12 3.14 3.14 3.14 3.14 3.14 3.16 3.16 3.18 3.18 3.18 3.18 3.18 3.20 3.20 3.23 3.23 3.25 3.25 3.30 3.30 3.33 3.33 3.35 3.35 3.38 3.38 3.43 3.43 3.46 3.46 3.49 3.49 3.52 3.52 3.58 3.58 3.61 3.61 3.64 3.64 3.67 3.67 3.74 3.74 3.77 3.77 3.81 3.81 3.84 3.84 3.80 4.03 3.66 3.53 4.24 4.81 4.33 4.07
5.76 5.76 5.76 5.82 5.82 5.81 5.88 5.88 5.95 5.94 5.94 5.93 5.93 5.93 5.92 5.92 5.77 5.77 5.84 5.83 5.83 5.75 5.68 5.61 5.54 5.54 5.54 5.53 5.53 5.52 5.52 5.52 5.39 5.39 5.44 5.44 5.44 5.37 5.31 5.25 5.13 5.13 5.12 5.12 5.12 5.11 5.11 5.11 4.99 5.16 5.39 5.32 5.20 5.09 5.08 5.19 4.82 4.81 4.76 4.71 4.66 4.61 4.61 4.56 4.56 4.55 4.51 4.42 4.33 4.21 4.13 4.06 3.85 3.82 3.76 3.66 3.60 3.52 3.49 3.46 3.33 3.31 3.26 3.19 3.12 3.06 3.02 3.00 2.92 2.92 2.91 2.89 2.89 2.87 2.87 2.87 2.83 2.83 2.83 2.83 2.81 2.80 2.79 2.78 2.77 2.76 2.76 2.76 2.76 2.76 2.76 2.75 2.72 2.72 2.72 2.71 2.71 2.71 2.71 2.71 2.67 2.67 2.67 2.67 2.67 2.67 2.67 2.66 2.73 2.73 2.74 2.76 2.77 2.79 2.79 2.80 2.84 2.85 2.87 2.89 2.92 2.94 2.96 2.98 3.08 3.10 3.12 3.16 3.20 3.25 3.27 3.29 3.29 3.27 3.22 3.17 3.10 3.06 3.01 2.99 2.99 2.95 2.87 2.98 2.74 2.31 2.94 8.58 4.70 4.09 3.80 3.90 3.90 3.60 3.52 3.63 3.69 3.72 3.82 3.92 4.02 4.10 4.13 4.13 3.91 3.90 3.90 3.90 3.83 3.79 3.76 3.72 3.60 3.57 3.51 3.51 3.59 3.68 3.84 3.91 3.61 2.87 2.31 2.12 2.15 2.25 2.26 2.21 2.28 2.28 2.29 2.31 2.34 2.37 2.40 2.42 2.37 2.55 2.92 2.70 2.31 1.75 3.83 30.37 13.28 12.13 11.17 10.88 11.16 11.16 10.86 10.33 9.84 11.13 13.64 140.90 3.25 1.75 2.38 2.28 2.38 4.30 28.09 421.12 12.76 9.35 9.56 7.64 8.40 8.23 7.92 7.77 7.91 8.06 8.38 8.73 13.08 9.30 7.09 6.15 5.80 6.05 7.59 10.18 6.05 2.96 2.16 2.29 2.64 2.62 2.57 2.70 2.61 2.61 2.61 2.61 2.61 2.61 2.61 2.61 2.64 2.64 2.64 2.64 2.63 2.63 2.63 2.63 2.66 2.66 2.66 2.68 2.68 2.69 2.69 2.69 2.76 2.76 2.76 2.76 2.76 2.76 2.76 2.76 2.79 2.79 2.79 2.79 2.79 2.79 2.79 2.78 2.84 2.84 2.84 2.86 2.86 2.88 2.88 2.87 2.94 2.93 2.95 2.97 3.00 3.02 3.02 3.04 3.01 3.01 3.01 3.03 3.03 3.05 3.05 3.05 3.07 3.07 3.10 3.09 3.12 3.12 3.14 3.14 3.14 3.14 3.14 3.16 3.16 3.18 3.18 3.18 3.18 3.18 3.20 3.20 3.23 3.22 3.25 3.25 3.30 3.30 3.33 3.33 3.35 3.35 3.38 3.38 3.43 3.43 3.46 3.46 3.49 3.49 3.52 3.52 3.58 3.58 3.61 3.61 3.64 3.64 3.67 3.67 3.74 3.74 3.77 3.77 3.81 3.81 3.84 3.84 3.99 4.16 3.76 3.63 3.99 3.99 3.83 4.07
5.69 5.69 5.75 5.82 5.89 5.88 5.95 5.95 6.02 6.02 6.01 6.01 6.00 6.00 6.00 5.99 5.77 5.77 5.83 5.83 5.83 5.75 5.68 5.61 5.54 5.54 5.53 5.53 5.53 5.52 5.52 5.52 5.39 5.38 5.44 5.44 5.44 5.37 5.31 5.24 5.13 5.12 5.12 5.12 5.11 5.11 5.11 5.10 4.84 5.04 5.27 5.26 5.03 4.93 4.97 5.08 4.81 4.81 4.76 4.71 4.66 4.61 4.61 4.56 4.56 4.55 4.51 4.46 4.33 4.21 4.13 4.06 3.82 3.79 3.72 3.66 3.60 3.55 3.52 3.49 3.33 3.31 3.26 3.19 3.12 3.06 3.02 2.99 2.92 2.91 2.91 2.89 2.89 2.87 2.87 2.87 2.83 2.83 2.83 2.83 2.81 2.80 2.79 2.78 2.77 2.76 2.76 2.76 2.76 2.76 2.76 2.75 2.74 2.73 2.73 2.73 2.73 2.73 2.73 2.72 2.67 2.67 2.67 2.67 2.67 2.67 2.66 2.66 2.73 2.73 2.74 2.76 2.77 2.79 2.79 2.80 2.84 2.85 2.87 2.89 2.92 2.94 2.96 2.98 3.08 3.10 3.12 3.16 3.20 3.25 3.27 3.29 3.29 3.27 3.22 3.17 3.10 3.05 3.01 2.99 2.99 2.95 2.89 2.98 2.74 2.31 2.96 8.75 4.55 3.97 3.73 3.86 3.90 3.66 3.60 3.76 3.96 3.92 3.92 3.95 4.06 4.26 4.43 4.57 4.09 4.01 3.87 3.80 3.73 3.76 3.79 3.86 4.23 4.07 3.82 3.59 3.53 3.56 3.65 3.71 4.09 3.26 2.67 2.51 2.68 2.88 2.88 2.76 2.99 3.01 3.08 3.17 3.31 3.44 3.59 3.65 4.40 4.14 3.84 2.86 2.26 1.72 3.94 106.26 14.16 12.87 11.47 11.16 11.46 11.45 10.86 10.33 9.62 10.32 12.44 211.31 3.35 1.77 2.36 2.23 2.57 4.79 32.40 38.28 8.59 7.51 10.26 10.78 8.75 8.57 8.39 7.92 7.49 6.99 6.55 6.34 5.90 5.65 5.73 6.24 6.96 8.19 11.28 18.14 12.27 3.72 2.30 2.22 2.55 2.74 2.63 2.55 2.61 2.61 2.61 2.61 2.61 2.61 2.61 2.61 2.64 2.64 2.64 2.64 2.63 2.63 2.63 2.63 2.66 2.66 2.66 2.68 2.68 2.69 2.69 2.69 2.76 2.76 2.76 2.76 2.76 2.76 2.76 2.75 2.79 2.79 2.79 2.79 2.79 2.79 2.79 2.78 2.84 2.84 2.84 2.86 2.86 2.88 2.87 2.87 2.93 2.93 2.95 2.97 3.00 3.02 3.02 3.04 3.01 3.01 3.01 3.03 3.03 3.05 3.05 3.05 3.07 3.07 3.09 3.09 3.12 3.12 3.14 3.14 3.14 3.14 3.13 3.16 3.16 3.18 3.18 3.18 3.18 3.18 3.20 3.20 3.22 3.22 3.25 3.25 3.30 3.30 3.33 3.32 3.35 3.35 3.38 3.38 3.43 3.43 3.46 3.46 3.49 3.49 3.52 3.52 3.58 3.58 3.61 3.61 3.64 3.64 3.67 3.67 3.74 3.74 3.77 3.77 3.81 3.80 3.84 3.84 4.39 4.29 3.87 3.80 4.07 3.87 3.73 4.24
6.29 6.20 6.04 5.89 5.82 5.88 5.95 5.95 6.09 6.09 6.01 6.01 5.93 5.92 5.85 5.84 5.84 5.84 5.83 5.83 5.83 5.89 5.89 5.89 5.67 5.67 5.60 5.53 5.53 5.59 5.65 5.65 6.00 5.78 5.64 5.57 5.50 5.43 5.31 5.13 5.30 5.24 5.18 5.06 5.06 5.06 5.05 5.10 4.69 5.04 5.21 4.98 4.83 4.92 4.97 4.92 5.02 5.02 4.96 4.91 4.85 4.80 4.75 4.74 4.51 4.46 4.42 4.33 4.21 4.06 3.99 3.92 3.82 3.82 3.75 3.69 3.66 3.60 3.54 3.54 3.31 3.28 3.26 3.21 3.17 3.12 3.08 3.05 2.93 2.93 2.93 2.93 2.91 2.91 2.89 2.89 2.87 2.86 2.84 2.84 2.82 2.82 2.80 2.80 2.78 2.78 2.78 2.78 2.78 2.77 2.77 2.77 2.77 2.77 2.77 2.75 2.75 2.73 2.73 2.72 2.69 2.69 2.70 2.70 2.72 2.71 2.73 2.73 2.74 2.74 2.76 2.77 2.79 2.80 2.82 2.82 2.89 2.89 2.91 2.94 2.96 3.00 3.02 3.02 3.10 3.12 3.14 3.18 3.23 3.27 3.30 3.32 3.32 3.29 3.26 3.21 3.17 3.12 3.10 3.07 2.93 3.05 2.83 2.94 2.70 2.49 3.77 10.17 4.65 4.12 3.76 3.80 4.04 4.07 3.69 3.32 3.85 3.85 3.81 3.78 3.74 3.71 3.68 3.64 3.70 3.70 3.70 3.67 3.63 3.63 3.60 3.60 3.51 3.54 3.59 3.62 3.62 3.59 3.53 3.50 3.61 3.41 2.94 4.52 5.30 6.13 5.79 5.71 5.63 5.56 5.41 5.21 5.03 4.85 4.74 4.69 4.22 3.84 4.30 3.28 2.71 2.14 3.17 141.66 35.40 11.47 9.64 11.78 11.16 11.45 12.83 11.76 10.58 12.82 12.43 35.21 4.06 1.71 2.38 2.21 2.63 3.43 6.19 35.08 14.03 11.37 8.41 8.94 8.57 8.23 8.07 8.22 8.22 7.62 6.54 5.90 6.25 6.24 6.97 8.04 8.03 7.20 7.32 8.18 8.69 104.21 3.33 2.01 2.57 2.76 2.57 2.60 2.63 2.63 2.63 2.63 2.63 2.62 2.62 2.62 2.66 2.65 2.65 2.65 2.65 2.65 2.65 2.65 2.70 2.70 2.71 2.71 2.73 2.73 2.73 2.73 2.76 2.76 2.76 2.78 2.78 2.79 2.79 2.79 2.79 2.79 2.81 2.81 2.83 2.82 2.82 2.84 2.86 2.86 2.86 2.88 2.88 2.90 2.89 2.89 2.96 2.95 2.97 2.97 2.99 2.99 2.99 2.99 3.04 3.03 3.03 3.05 3.05 3.08 3.07 3.07 3.19 3.19 3.17 3.17 3.16 3.16 3.14 3.14 3.21 3.21 3.21 3.21 3.21 3.21 3.20 3.20 3.25 3.25 3.25 3.28 3.28 3.30 3.30 3.30 3.38 3.38 3.41 3.44 3.47 3.50 3.49 3.52 3.52 3.52 3.52 3.55 3.55 3.58 3.58 3.58 3.64 3.64 3.64 3.64 3.67 3.67 3.70 3.70 3.74 3.77 3.77 3.81 3.84 3.88 3.91 3.91 3.95 3.95 3.95 3.95 3.95 3.95 3.95 3.95
6.13 6.04 5.89 5.82 5.75 5.74 5.81 5.87 6.09 6.09 6.01 6.01 5.93 5.92 5.85 5.84 5.84 5.84 5.83 5.83 5.83 5.82 5.89 5.89 5.67 5.81 5.87 5.80 5.73 5.72 5.93 6.16 5.93 5.78 5.64 5.63 5.77 5.76 5.62 5.49 5.68 5.61 5.48 5.35 5.23 5.17 5.16 5.16 4.84 5.10 5.15 4.98 4.93 5.08 5.08 4.87 5.02 5.02 4.96 4.91 4.85 4.80 4.75 4.74 4.51 4.46 4.42 4.33 4.21 4.10 3.99 3.92 3.82 3.82 3.75 3.69 3.66 3.60 3.54 3.54 3.31 3.31 3.26 3.21 3.16 3.12 3.08 3.05 2.93 2.93 2.93 2.93 2.91 2.91 2.89 2.88 2.87 2.86 2.84 2.84 2.82 2.82 2.80 2.80 2.78 2.78 2.78 2.78 2.77 2.77 2.77 2.77 2.77 2.77 2.77 2.75 2.74 2.73 2.73 2.72 2.69 2.69 2.70 2.70 2.72 2.71 2.73 2.73 2.74 2.74 2.76 2.77 2.79 2.80 2.82 2.82 2.89 2.89 2.91 2.94 2.96 3.00 3.02 3.02 3.10 3.12 3.14 3.18 3.23 3.27 3.29 3.32 3.32 3.29 3.26 3.21 3.17 3.12 3.10 3.07 2.93 3.05 2.83 2.92 2.69 2.53 3.91 9.31 4.51 4.08 3.83 3.90 4.11 4.04 3.60 3.25 4.07 4.07 4.03 4.02 4.02 4.02 4.05 4.09 3.64 3.64 3.64 3.64 3.63 3.63 3.63 3.63 3.51 3.48 3.45 3.42 3.45 3.53 3.65 3.71 3.44 3.16 2.67 3.67 3.94 4.24 3.97 3.86 3.75 3.72 3.72 3.72 3.71 3.68 3.68 3.68 4.10 3.67 3.98 3.13 2.73 2.19 3.15 35.41 42.47 12.86 11.47 15.71 14.62 13.24 13.23 11.14 11.43 13.21 12.08 46.94 4.02 1.71 2.38 2.21 2.89 3.54 5.93 30.06 15.58 12.37 8.58 9.13 12.73 11.05 9.54 8.92 9.11 9.31 9.10 8.91 7.75 6.97 6.97 7.74 8.03 7.46 7.32 7.58 8.02 29.77 3.16 1.92 2.36 2.67 2.58 2.60 2.63 2.63 2.63 2.63 2.63 2.62 2.62 2.62 2.67 2.67 2.67 2.67 2.67 2.67 2.67 2.66 2.70 2.70 2.71 2.71 2.73 2.73 2.73 2.73 2.76 2.76 2.76 2.78 2.78 2.79 2.79 2.79 2.79 2.81 2.81 2.81 2.82 2.82 2.84 2.84 2.86 2.86 2.88 2.88 2.90 2.90 2.89 2.91 2.95 2.95 2.97 2.97 2.99 2.99 2.99 2.99 3.03 3.03 3.03 3.05 3.05 3.08 3.07 3.07 3.17 3.17 3.17 3.16 3.16 3.16 3.16 3.16 3.21 3.21 3.21 3.21 3.21 3.20 3.20 3.20 3.25 3.25 3.25 3.28 3.28 3.30 3.30 3.30 3.38 3.38 3.41 3.44 3.47 3.49 3.49 3.52 3.52 3.52 3.52 3.55 3.55 3.58 3.58 3.58 3.64 3.64 3.64 3.64 3.67 3.67 3.70 3.70 3.74 3.77 3.77 3.80 3.84 3.88 3.91 3.91 3.95 3.95 3.95 3.95 3.95 3.95 3.95 3.94
5.97 5.90 5.82 5.75 5.75 5.74 5.74 5.80 6.09 6.09 6.01 6.00 5.93 5.92 5.85 5.84 5.84 5.84 5.83 5.83 5.82 5.82 5.82 5.81 5.81 6.10 6.26 6.02 5.59 5.46 5.72 6.08 5.71 5.57 5.50 5.63 5.77 5.91 5.83 5.68 5.89 5.82 5.61 5.41 5.28 5.17 5.16 5.10 5.10 5.15 5.04 4.93 5.14 5.38 5.19 4.77 5.02 5.02 4.96 4.90 4.85 4.80 4.75 4.74 4.55 4.51 4.46 4.37 4.25 4.13 4.02 3.95 3.82 3.82 3.75 3.69 3.66 3.60 3.54 3.54 3.33 3.31 3.26 3.21 3.16 3.10 3.05 3.05 2.93 2.93 2.93 2.93 2.91 2.91 2.89 2.88 2.86 2.86 2.84 2.84 2.82 2.82 2.80 2.80 2.78 2.78 2.78 2.78 2.77 2.77 2.77 2.77 2.77 2.77 2.76 2.75 2.74 2.73 2.72 2.72 2.69 2.69 2.70 2.70 2.72 2.71 2.73 2.73 2.74 2.74 2.76 2.77 2.79 2.80 2.82 2.82 2.89 2.89 2.90 2.94 2.96 3.00 3.02 3.01 3.10 3.12 3.14 3.18 3.23 3.27 3.29 3.32 3.32 3.29 3.26 3.21 3.17 3.12 3.09 3.07 2.95 3.05 2.87 2.90 2.67 2.65 4.13 7.95 4.33 4.04 3.90 4.00 4.19 4.04 3.51 3.13 3.92 3.85 3.75 3.65 3.62 3.65 3.68 3.71 3.52 3.52 3.55 3.58 3.60 3.63 3.66 3.66 3.51 3.42 3.32 3.26 3.34 3.53 3.77 3.94 3.64 3.30 2.73 3.80 4.20 4.71 4.56 4.60 4.46 4.46 4.36 4.32 4.23 4.14 4.10 4.06 3.88 3.46 3.74 3.02 2.76 2.26 3.13 17.70 32.66 11.47 10.35 12.85 12.11 11.15 11.44 10.08 12.82 13.64 12.43 84.48 4.02 1.72 2.38 2.21 3.87 4.39 6.90 42.08 15.58 11.36 8.58 10.00 7.37 6.99 6.66 6.76 7.35 8.21 9.10 9.51 10.46 8.20 6.97 6.96 7.20 6.96 6.52 6.32 9.26 26.04 3.41 1.97 2.31 2.79 2.74 2.66 2.63 2.63 2.63 2.63 2.62 2.62 2.62 2.62 2.67 2.67 2.67 2.67 2.67 2.67 2.66 2.66 2.70 2.70 2.71 2.71 2.73 2.73 2.73 2.73 2.76 2.76 2.76 2.78 2.78 2.79 2.79 2.79 2.81 2.81 2.81 2.83 2.82 2.84 2.84 2.84 2.88 2.88 2.88 2.88 2.90 2.89 2.91 2.91 2.95 2.95 2.97 2.97 2.99 2.99 2.99 2.99 3.03 3.03 3.03 3.05 3.05 3.07 3.07 3.07 3.17 3.17 3.17 3.16 3.16 3.16 3.16 3.16 3.21 3.21 3.21 3.21 3.21 3.20 3.20 3.20 3.25 3.25 3.25 3.28 3.28 3.30 3.30 3.30 3.38 3.38 3.41 3.44 3.46 3.49 3.49 3.52 3.52 3.52 3.52 3.55 3.55 3.58 3.58 3.58 3.64 3.64 3.64 3.64 3.67 3.67 3.70 3.70 3.74 3.77 3.77 3.80 3.84 3.88 3.91 3.91 3.95 3.95 3.95 3.95 3.95 3.95 3.94 3.94
5.90 5.90 5.89 5.82 5.81 5.81 5.81 5.80 6.09 6.09 6.01 6.00 5.93 5.92 5.85 5.84 5.91 5.91 5.90 5.83 5.82 5.82 5.82 5.74 5.88 6.26 6.52 6.02 5.28 5.00 5.27 5.65 5.51 5.44 5.38 5.44 5.63 5.69 5.62 5.55 5.61 5.54 5.41 5.23 5.11 5.05 5.00 4.99 5.33 5.15 4.93 4.93 5.32 5.70 5.31 4.72 5.02 5.02 4.96 4.90 4.85 4.80 4.74 4.74 4.60 4.55 4.50 4.41 4.29 4.17 4.06 3.99 3.82 3.82 3.75 3.69 3.66 3.60 3.54 3.54 3.36 3.33 3.28 3.21 3.14 3.10 3.05 3.03 2.93 2.93 2.93 2.93 2.91 2.91 2.89 2.88 2.86 2.86 2.84 2.84 2.82 2.82 2.80 2.80 2.78 2.78 2.78 2.78 2.77 2.77 2.77 2.77 2.77 2.77 2.76 2.75 2.74 2.73 2.72 2.72 2.69 2.69 2.70 2.70 2.71 2.71 2.73 2.73 2.74 2.74 2.76 2.77 2.79 2.80 2.82 2.82 2.89 2.89 2.90 2.94 2.96 3.00 3.02 3.01 3.10 3.12 3.14 3.18 3.23 3.27 3.29 3.32 3.31 3.29 3.26 3.21 3.16 3.12 3.09 3.07 2.97 3.07 2.90 2.88 2.64 2.81 4.46 6.73 4.20 4.01 3.97 4.12 4.27 4.00 3.46 3.09 4.14 3.99 3.78 3.59 3.47 3.42 3.44 3.47 3.47 3.49 3.52 3.55 3.60 3.63 3.69 3.69 3.57 3.48 3.37 3.31 3.39 3.59 3.81 4.02 4.05 3.52 2.75 3.64 3.83 4.20 4.12 4.16 3.82 3.82 3.78 3.75 3.71 3.65 3.65 3.61 3.52 3.35 3.74 3.04 2.84 2.32 3.08 11.48 141.52 14.14 11.16 12.85 11.77 11.15 12.45 11.13 13.22 14.09 12.80 422.32 3.98 1.72 2.38 2.20 5.27 5.85 8.59 38.25 11.37 9.14 8.75 13.55 14.99 15.54 16.78 20.96 29.93 52.35 104.66 209.23 4182.65 46.45 20.89 17.40 18.15 18.15 16.69 16.04 14.89 41.66 4.08 2.07 2.21 2.79 2.75 2.55 2.65 2.64 2.64 2.64 2.64 2.64 2.64 2.64 2.67 2.67 2.67 2.67 2.67 2.67 2.66 2.66 2.70 2.70 2.71 2.71 2.73 2.73 2.73 2.72 2.76 2.76 2.76 2.78 2.77 2.79 2.79 2.79 2.81 2.81 2.83 2.82 2.84 2.84 2.84 2.86 2.88 2.88 2.90 2.90 2.90 2.91 2.91 2.91 2.95 2.95 2.97 2.97 2.99 2.99 2.99 2.99 3.03 3.03 3.03 3.05 3.05 3.07 3.07 3.07 3.14 3.14 3.16 3.16 3.16 3.16 3.19 3.18 3.21 3.21 3.21 3.21 3.20 3.20 3.20 3.20 3.25 3.25 3.25 3.28 3.27 3.30 3.30 3.30 3.38 3.38 3.41 3.44 3.46 3.49 3.49 3.52 3.52 3.52 3.52 3.55 3.55 3.58 3.58 3.58 3.64 3.64 3.64 3.64 3.67 3.67 3.70 3.70 3.74 3.77 3.77 3.80 3.84 3.88 3.91 3.91 3.95 3.95 3.95 3.95 3.95 3.94 3.94 3.94
5.90 5.97 5.96 5.96 5.96 5.95 5.95 5.94 6.09 6.09 6.01 6.00 5.93 5.92 5.85 5.84 5.98 5.98 5.90 5.90 5.82 5.75 5.75 5.74 5.67 6.10 6.43 6.02 5.34 5.10 5.39 5.93 5.71 5.57 5.44 5.50 5.56 5.62 5.49 5.36 5.36 5.29 5.23 5.11 5.06 5.05 5.05 5.05 5.39 5.21 4.88 4.88 5.38 5.77 5.37 4.67 5.02 5.01 4.96 4.90 4.85 4.80 4.74 4.74 4.64 4.59 4.55 4.46 4.33 4.21 4.09 4.02 3.82 3.82 3.75 3.69 3.66 3.60 3.54 3.54 3.36 3.33 3.28 3.21 3.14 3.08 3.03 3.01 2.93 2.93 2.93 2.93 2.91 2.91 2.89 2.88 2.86 2.86 2.84 2.84 2.82 2.82 2.80 2.80 2.78 2.78 2.78 2.78 2.77 2.77 2.77 2.77 2.77 2.77 2.76 2.75 2.74 2.73 2.72 2.72 2.69 2.69 2.70 2.70 2.71 2.71 2.73 2.73 2.74 2.74 2.76 2.77 2.79 2.80 2.82 2.82 2.89 2.89 2.90 2.94 2.96 3.00 3.02 3.01 3.10 3.12 3.14 3.18 3.22 3.27 3.29 3.32 3.31 3.29 3.26 3.21 3.16 3.12 3.09 3.07 2.99 3.07 2.94 2.86 2.61 3.00 4.91 5.75 4.16 4.04 4.00 4.15 4.27 4.00 3.48 3.13 4.58 4.39 4.10 3.88 3.74 3.71 3.74 3.74 3.55 3.55 3.58 3.60 3.66 3.69 3.72 3.72 3.66 3.59 3.56 3.56 3.59 3.71 3.81 3.91 4.17 3.41 2.48 2.86 2.73 2.75 2.61 2.61 2.61 2.64 2.69 2.74 2.81 2.88 2.94 2.96 3.20 3.25 3.84 3.15 2.95 2.39 2.95 7.58 141.49 15.15 12.12 14.62 12.46 10.86 10.58 9.00 11.75 12.81 12.07 140.75 3.87 1.69 2.34 2.16 5.33 6.10 8.59 23.37 10.01 10.51 12.00 24.70 52.46 38.14 24.67 18.22 15.52 15.51 16.10 17.43 18.18 17.42 16.71 16.71 19.88 32.10 52.14 59.56 34.73 4165.35 5.78 2.21 2.01 2.54 2.63 2.44 2.66 2.66 2.66 2.66 2.66 2.66 2.66 2.65 2.69 2.69 2.69 2.68 2.68 2.68 2.68 2.68 2.70 2.70 2.71 2.71 2.73 2.73 2.73 2.72 2.76 2.76 2.76 2.78 2.77 2.79 2.79 2.79 2.83 2.83 2.83 2.84 2.84 2.86 2.86 2.86 2.90 2.90 2.90 2.92 2.92 2.91 2.93 2.93 2.95 2.95 2.97 2.97 2.99 2.99 2.99 2.99 3.03 3.03 3.03 3.05 3.05 3.07 3.07 3.07 3.12 3.14 3.14 3.16 3.16 3.19 3.18 3.21 3.21 3.21 3.21 3.21 3.20 3.20 3.20 3.20 3.25 3.25 3.25 3.28 3.27 3.30 3.30 3.30 3.38 3.38 3.41 3.43 3.46 3.49 3.49 3.52 3.52 3.52 3.52 3.55 3.55 3.58 3.58 3.58 3.64 3.64 3.64 3.64 3.67 3.67 3.70 3.70 3.73 3.77 3.77 3.80 3.84 3.87 3.91 3.91 3.95 3.95 3.95 3.95 3.94 3.94 3.94 3.94
5.90 5.89 5.96 6.03 6.11 6.10 6.02 6.02 6.09 6.09 6.01 6.00 5.92 5.92 5.84 5.84 6.06 5.98 5.98 5.90 5.82 5.75 5.68 5.67 5.54 5.88 6.18 6.09 5.72 5.72 6.16 6.68 6.00 5.85 5.70 5.70 5.69 5.69 5.55 5.42 5.42 5.35 5.29 5.23 5.17 5.22 5.22 5.21 5.33 5.15 4.93 4.93 5.32 5.70 5.31 4.72 5.02 5.01 4.96 4.90 4.85 4.80 4.74 4.74 4.69 4.64 4.59 4.50 4.37 4.25 4.13 4.06 3.82 3.82 3.75 3.69 3.66 3.60 3.54 3.54 3.38 3.35 3.28 3.21 3.14 3.08 3.03 2.99 2.93 2.93 2.93 2.93 2.91 2.91 2.88 2.88 2.86 2.86 2.84 2.84 2.82 2.82 2.80 2.80 2.78 2.78 2.78 2.77 2.77 2.77 2.77 2.77 2.77 2.76 2.76 2.74 2.74 2.73 2.72 2.72 2.69 2.69 2.70 2.70 2.71 2.71 2.73 2.73 2.74 2.74 2.75 2.77 2.79 2.80 2.82 2.82 2.89 2.89 2.90 2.94 2.96 3.00 3.01 3.01 3.10 3.12 3.14 3.18 3.22 3.27 3.29 3.32 3.31 3.29 3.26 3.21 3.16 3.12 3.09 3.07 3.01 3.09 2.98 2.83 2.59 3.19 5.47 5.14 4.20 4.08 4.00 4.11 4.19 4.00 3.60 3.30 3.82 3.75 3.65 3.56 3.53 3.53 3.58 3.61 3.73 3.73 3.73 3.73 3.73 3.72 3.72 3.75 3.72 3.72 3.75 3.74 3.78 3.81 3.84 3.84 4.38 3.46 2.47 2.80 2.68 2.76 2.69 2.74 2.72 2.74 2.77 2.83 2.88 2.94 2.98 3.00 2.92 3.06 3.67 3.13 3.08 2.44 2.72 4.94 70.73 16.32 16.96 35.32 30.26 21.17 16.93 12.44 11.13 12.81 12.07 70.36 3.91 1.70 2.36 2.17 5.33 6.10 8.09 22.14 14.50 24.72 15.56 11.99 4.03 3.74 3.28 2.89 2.62 2.52 2.52 2.57 2.60 2.70 2.82 2.94 3.19 3.48 3.63 3.59 16.02 4164.61 16.01 2.76 2.00 2.47 2.72 2.65 2.66 2.66 2.66 2.66 2.66 2.66 2.65 2.65 2.70 2.70 2.70 2.70 2.70 2.70 2.70 2.70 2.70 2.69 2.71 2.71 2.73 2.73 2.72 2.72 2.76 2.76 2.76 2.77 2.77 2.79 2.79 2.79 2.83 2.85 2.84 2.84 2.86 2.86 2.88 2.88 2.90 2.90 2.92 2.92 2.94 2.93 2.93 2.93 2.95 2.95 2.97 2.97 2.99 2.99 2.99 2.99 3.03 3.03 3.03 3.05 3.05 3.07 3.07 3.07 3.12 3.12 3.14 3.16 3.16 3.19 3.21 3.21 3.21 3.21 3.21 3.20 3.20 3.20 3.20 3.20 3.25 3.25 3.25 3.27 3.27 3.30 3.30 3.30 3.38 3.38 3.41 3.43 3.46 3.49 3.49 3.52 3.52 3.52 3.52 3.55 3.55 3.58 3.58 3.58 3.64 3.64 3.64 3.64 3.67 3.67 3.70 3.70 3.73 3.77 3.77 3.80 3.84 3.87 3.91 3.91 3.95 3.95 3.95 3.94 3.94 3.94 3.94 3.94
5.69 5.75 5.89 6.03 6.03 6.03 5.95 5.94 6.09 6.09 6.01 6.00 5.92 5.92 5.84 5.84 6.06 6.05 5.97 5.90 5.82 5.75 5.68 5.61 5.81 5.95 6.02 6.02 5.86 5.93 6.16 6.41 6.00 5.84 5.70 5.70 5.69 5.69 5.55 5.42 5.61 5.54 5.41 5.35 5.22 5.22 5.22 5.21 5.21 5.15 4.98 4.93 5.20 5.50 5.25 4.76 5.02 5.01 4.96 4.90 4.85 4.79 4.74 4.74 4.74 4.69 4.64 4.54 4.41 4.29 4.17 4.09 3.82 3.82 3.75 3.69 3.66 3.60 3.54 3.54 3.40 3.35 3.30 3.23 3.14 3.08 3.01 2.99 2.93 2.93 2.93 2.93 2.91 2.90 2.88 2.88 2.86 2.86 2.84 2.84 2.82 2.82 2.80 2.80 2.78 2.78 2.78 2.77 2.77 2.77 2.77 2.77 2.77 2.76 2.76 2.74 2.74 2.72 2.72 2.72 2.69 2.69 2.70 2.70 2.71 2.71 2.73 2.73 2.74 2.74 2.75 2.77 2.79 2.80 2.82 2.82 2.89 2.89 2.90 2.94 2.96 3.00 3.01 3.01 3.10 3.12 3.14 3.18 3.22 3.27 3.29 3.31 3.31 3.29 3.26 3.21 3.16 3.12 3.09 3.07 3.00 3.09 3.02 2.81 2.56 3.37 5.91 4.70 4.28 4.12 4.00 4.04 4.11 4.03 3.72 3.51 3.54 3.51 3.48 3.47 3.47 3.50 3.50 3.52 3.97 3.93 3.93 3.86 3.82 3.79 3.75 3.75 3.78 3.78 3.78 3.78 3.81 3.84 3.91 3.94 4.99 3.80 2.62 3.02 2.94 3.13 3.17 3.32 2.97 2.95 2.93 2.91 2.88 2.86 2.86 2.84 2.75 2.80 3.30 3.00 3.17 2.51 2.48 3.45 10.88 7.44 8.15 13.67 19.25 28.22 52.89 42.29 14.09 16.90 15.08 105.53 4.26 1.77 2.51 2.28 7.14 7.13 7.51 17.52 20.02 35.01 6.27 3.31 2.26 2.27 2.27 2.22 2.16 2.12 2.13 2.17 2.09 2.11 2.12 2.14 2.20 2.22 2.10 1.96 3.53 10.41 4162.07 3.78 2.09 2.38 2.61 2.61 2.66 2.66 2.66 2.66 2.66 2.66 2.65 2.65 2.70 2.70 2.70 2.70 2.70 2.70 2.70 2.70 2.70 2.69 2.71 2.71 2.73 2.73 2.72 2.72 2.76 2.76 2.76 2.77 2.77 2.79 2.79 2.79 2.85 2.84 2.84 2.86 2.86 2.88 2.88 2.88 2.90 2.92 2.92 2.92 2.94 2.93 2.95 2.95 2.95 2.95 2.97 2.97 2.99 2.99 2.99 2.99 3.03 3.03 3.03 3.05 3.05 3.07 3.07 3.07 3.09 3.12 3.11 3.14 3.19 3.21 3.21 3.23 3.21 3.21 3.20 3.20 3.20 3.20 3.20 3.20 3.25 3.25 3.25 3.27 3.27 3.30 3.30 3.30 3.38 3.38 3.41 3.43 3.46 3.49 3.49 3.52 3.52 3.52 3.52 3.55 3.55 3.58 3.58 3.57 3.64 3.64 3.64 3.64 3.67 3.67 3.70 3.70 3.73 3.77 3.77 3.80 3.84 3.87 3.91 3.91 3.95 3.95 3.95 3.94 3.94 3.94 3.94 3.94
5.56 5.68 5.82 5.89 5.95 5.95 5.87 5.80 6.09 6.08 6.00 6.00 5.92 5.92 5.84 5.84 6.06 6.05 5.97 5.90 5.82 5.68 5.67 5.60 6.18 6.10 5.94 5.79 5.65 5.58 5.58 5.58 5.71 5.57 5.44 5.50 5.56 5.62 5.49 5.36 5.75 5.61 5.47 5.28 5.17 5.05 4.99 4.99 5.10 5.15 5.03 4.98 5.14 5.37 5.19 4.81 5.02 5.01 4.96 4.90 4.85 4.79 4.74 4.74 4.74 4.73 4.64 4.54 4.41 4.28 4.17 4.13 3.82 3.81 3.75 3.69 3.66 3.60 3.54 3.54 3.40 3.38 3.30 3.23 3.14 3.08 3.01 2.99 2.93 2.93 2.93 2.93 2.91 2.90 2.88 2.88 2.86 2.86 2.84 2.84 2.82 2.82 2.80 2.80 2.78 2.78 2.78 2.77 2.77 2.77 2.77 2.77 2.77 2.76 2.76 2.74 2.74 2.72 2.72 2.72 2.69 2.69 2.70 2.70 2.71 2.71 2.73 2.72 2.74 2.74 2.75 2.77 2.78 2.80 2.82 2.82 2.89 2.89 2.90 2.94 2.96 3.00 3.01 3.01 3.09 3.11 3.14 3.18 3.22 3.27 3.29 3.31 3.31 3.29 3.26 3.21 3.16 3.12 3.09 3.07 3.02 3.09 3.04 2.81 2.56 3.47 6.25 4.50 4.37 4.16 4.00 3.96 4.07 4.03 3.82 3.66 4.39 4.39 4.34 4.30 4.25 4.21 4.17 4.17 4.16 4.12 4.04 3.97 3.89 3.82 3.75 3.75 3.85 3.78 3.71 3.68 3.74 3.84 3.98 4.09 5.37 3.87 2.52 2.71 2.52 2.55 2.50 2.55 2.67 2.67 2.67 2.67 2.67 2.67 2.66 2.66 2.66 2.64 3.00 2.84 3.22 2.56 2.35 2.85 3.45 2.97 3.05 3.75 4.55 6.22 9.84 12.08 21.13 30.17 22.22 4220.31 4.79 1.86 2.68 2.42 11.08 8.42 6.57 11.36 14.49 13.55 3.23 1.79 2.29 2.54 3.04 3.64 4.15 4.45 4.60 4.70 4.98 4.64 4.13 3.73 3.51 3.14 2.56 2.18 1.79 3.75 46.24 4.29 2.05 2.14 2.25 2.23 2.68 2.68 2.68 2.67 2.67 2.67 2.67 2.67 2.70 2.70 2.70 2.70 2.70 2.70 2.70 2.70 2.69 2.69 2.71 2.71 2.73 2.73 2.72 2.72 2.76 2.76 2.76 2.77 2.77 2.79 2.79 2.79 2.85 2.84 2.84 2.86 2.86 2.88 2.88 2.88 2.92 2.92 2.92 2.94 2.93 2.95 2.95 2.95 2.95 2.95 2.97 2.97 2.99 2.99 2.99 2.99 3.03 3.03 3.03 3.05 3.05 3.07 3.07 3.07 3.09 3.09 3.11 3.14 3.19 3.21 3.23 3.23 3.21 3.21 3.20 3.20 3.20 3.20 3.20 3.20 3.25 3.25 3.25 3.27 3.27 3.30 3.30 3.30 3.38 3.38 3.40 3.43 3.46 3.49 3.49 3.52 3.52 3.52 3.52 3.55 3.55 3.58 3.58 3.57 3.64 3.64 3.64 3.64 3.67 3.67 3.70 3.70 3.73 3.77 3.77 3.80 3.84 3.87 3.91 3.91 3.95 3.95 3.94 3.94 3.94 3.94 3.94 3.94
6.20 6.19 6.19 6.19 6.18 6.18 6.17 6.17 6.17 6.16 6.16 6.15 6.15 6.15 6.14 6.14 6.47 6.29 6.05 5.82 5.75 5.82 5.96 6.03 6.18 6.10 5.87 5.72 5.65 5.79 5.93 6.00 5.85 5.77 5.77 5.63 5.56 5.49 5.42 5.42 5.42 5.61 5.67 5.53 5.28 5.16 5.27 5.45 5.27 5.26 5.20 5.20 5.14 5.14 5.08 5.07 4.96 4.91 4.90 4.85 4.80 4.74 4.69 4.69 4.69 4.64 4.54 4.45 4.33 4.24 4.17 4.16 3.91 3.88 3.81 3.75 3.66 3.60 3.57 3.54 3.43 3.38 3.33 3.28 3.21 3.14 3.09 3.07 2.99 2.99 2.99 2.96 2.96 2.94 2.94 2.94 2.88 2.88 2.88 2.88 2.87 2.87 2.87 2.87 2.85 2.85 2.83 2.83 2.81 2.80 2.79 2.78 2.77 2.76 2.76 2.76 2.76 2.76 2.76 2.75 2.74 2.73 2.73 2.73 2.73 2.73 2.73 2.72 2.77 2.79 2.79 2.80 2.82 2.84 2.85 2.85 2.92 2.94 2.96 2.98 3.02 3.04 3.06 3.07 3.16 3.16 3.20 3.22 3.27 3.32 3.34 3.36 3.36 3.36 3.36 3.33 3.30 3.25 3.20 3.18 2.98 3.07 3.17 2.50 3.06 5.54 4.65 4.41 4.32 4.16 4.11 4.11 3.96 3.75 3.75 3.92 4.03 3.99 3.98 4.06 4.09 4.13 4.05 3.97 4.05 4.16 4.20 4.12 3.93 3.85 3.89 3.99 3.75 3.78 3.78 3.78 3.81 3.81 3.84 3.84 4.88 4.13 3.09 2.70 2.89 3.04 2.95 2.99 2.76 2.76 2.72 2.69 2.65 2.62 2.60 2.58 2.66 2.73 2.82 2.85 2.78 2.72 2.81 2.97 3.42 3.75 3.72 3.62 3.65 3.31 3.09 3.28 3.58 3.25 3.70 4.35 3.40 2.62 2.59 2.87 9.35 6.79 6.10 11.68 20.01 19.09 3.11 1.68 1.90 1.96 1.90 1.81 1.79 1.75 1.78 1.93 1.93 1.83 1.82 1.90 1.90 1.89 2.03 2.29 1.98 3.75 416.06 27.73 4.95 4.67 3.55 2.37 2.71 2.71 2.71 2.71 2.71 2.71 2.71 2.70 2.74 2.74 2.74 2.74 2.73 2.73 2.73 2.73 2.71 2.71 2.73 2.73 2.74 2.74 2.74 2.76 2.80 2.79 2.81 2.81 2.83 2.83 2.85 2.85 2.86 2.86 2.88 2.88 2.90 2.90 2.90 2.90 2.92 2.92 2.92 2.89 2.91 2.93 2.95 2.97 3.02 3.02 3.01 3.04 3.03 3.06 3.06 3.05 3.05 3.05 3.07 3.07 3.10 3.09 3.09 3.09 3.14 3.14 3.14 3.16 3.16 3.18 3.18 3.18 3.26 3.26 3.26 3.25 3.25 3.25 3.25 3.25 3.30 3.30 3.33 3.33 3.35 3.35 3.38 3.38 3.41 3.41 3.40 3.43 3.43 3.46 3.46 3.46 3.61 3.61 3.61 3.61 3.61 3.61 3.61 3.61 3.67 3.67 3.67 3.67 3.67 3.67 3.67 3.66 3.80 3.80 3.84 3.87 3.87 3.91 3.95 3.95 4.03 4.02 4.02 4.06 4.06 4.10 4.10 4.10
6.20 6.19 6.19 6.19 6.18 6.18 6.17 6.17 6.17 6.16 6.16 6.15 6.15 6.15 6.14 6.14 6.38 6.21 6.13 5.97 6.04 6.19 6.35 6.52 6.18 6.10 5.87 5.72 5.72 5.79 5.93 6.00 5.85 5.77 5.70 5.63 5.56 5.49 5.42 5.42 5.48 5.60 5.67 5.60 5.34 5.28 5.33 5.52 5.27 5.26 5.20 5.20 5.14 5.13 5.08 5.07 4.96 4.91 4.90 4.85 4.80 4.74 4.69 4.69 4.64 4.59 4.50 4.41 4.29 4.21 4.16 4.13 3.91 3.88 3.81 3.75 3.66 3.60 3.57 3.54 3.43 3.38 3.33 3.28 3.21 3.14 3.09 3.07 2.99 2.99 2.98 2.96 2.96 2.94 2.94 2.94 2.88 2.88 2.88 2.87 2.87 2.87 2.87 2.87 2.85 2.85 2.83 2.83 2.81 2.80 2.79 2.78 2.76 2.76 2.76 2.76 2.76 2.76 2.76 2.75 2.74 2.73 2.73 2.73 2.73 2.73 2.73 2.72 2.79 2.79 2.80 2.82 2.84 2.84 2.85 2.85 2.92 2.94 2.96 2.98 3.02 3.04 3.05 3.07 3.16 3.16 3.20 3.25 3.29 3.32 3.37 3.36 3.39 3.39 3.38 3.36 3.30 3.25 3.20 3.18 3.02 3.06 3.15 2.50 3.13 5.75 4.65 4.32 4.24 4.12 4.08 4.07 3.92 3.69 3.72 3.88 4.14 4.10 4.06 4.06 4.09 4.05 3.94 3.87 4.12 4.16 4.16 4.04 3.82 3.72 3.72 3.78 3.85 3.85 3.88 3.88 3.87 3.91 3.91 3.90 4.09 3.80 3.15 3.02 3.57 4.12 4.11 4.23 4.19 4.23 4.23 4.27 4.31 4.35 4.35 4.35 4.63 4.48 4.21 3.73 3.15 2.76 2.64 2.69 3.48 3.82 3.82 3.71 3.75 3.41 3.20 3.38 3.28 3.18 3.46 4.02 3.54 2.74 2.63 3.05 9.79 6.28 6.37 16.17 26.26 27.99 3.38 1.69 2.07 2.15 2.08 1.99 1.99 1.93 1.91 2.02 2.07 2.01 2.05 2.16 2.17 2.12 2.22 2.42 1.91 3.38 59.43 29.70 5.13 4.37 3.27 2.28 2.71 2.71 2.71 2.71 2.71 2.71 2.71 2.70 2.74 2.74 2.74 2.74 2.73 2.73 2.73 2.73 2.71 2.73 2.73 2.73 2.74 2.74 2.76 2.76 2.79 2.79 2.81 2.81 2.83 2.83 2.85 2.85 2.86 2.86 2.88 2.88 2.90 2.90 2.90 2.90 2.94 2.92 2.91 2.91 2.91 2.93 2.95 2.97 3.02 3.01 3.01 3.04 3.03 3.06 3.05 3.05 3.05 3.05 3.07 3.07 3.10 3.09 3.09 3.09 3.14 3.14 3.14 3.16 3.16 3.18 3.18 3.18 3.26 3.26 3.25 3.25 3.25 3.25 3.25 3.25 3.30 3.30 3.33 3.33 3.35 3.35 3.38 3.38 3.41 3.40 3.40 3.43 3.43 3.46 3.46 3.46 3.61 3.61 3.61 3.61 3.61 3.61 3.61 3.61 3.67 3.67 3.67 3.67 3.67 3.67 3.66 3.66 3.80 3.80 3.84 3.87 3.87 3.91 3.95 3.95 4.02 4.02 4.02 4.06 4.06 4.10 4.10 4.10
6.20 6.19 6.19 6.18 6.18 6.18 6.17 6.17 6.16 6.16 6.16 6.15 6.15 6.14 6.14 6.14 6.29 6.21 6.12 6.04 6.04 6.19 6.35 6.43 6.18 6.02 5.87 5.79 5.72 5.78 5.85 5.92 5.77 5.77 5.70 5.63 5.56 5.49 5.48 5.42 5.48 5.54 5.60 5.53 5.40 5.34 5.39 5.52 5.27 5.26 5.20 5.20 5.14 5.13 5.07 5.07 4.96 4.91 4.90 4.85 4.80 4.74 4.69 4.69 4.59 4.55 4.46 4.37 4.25 4.17 4.13 4.09 3.91 3.88 3.81 3.75 3.65 3.60 3.57 3.54 3.43 3.38 3.32 3.28 3.20 3.14 3.09 3.07 2.99 2.99 2.98 2.96 2.96 2.94 2.94 2.94 2.88 2.88 2.88 2.87 2.87 2.87 2.87 2.87 2.85 2.85 2.83 2.82 2.81 2.80 2.78 2.78 2.76 2.76 2.76 2.76 2.76 2.76 2.75 2.75 2.73 2.73 2.73 2.73 2.73 2.73 2.73 2.72 2.79 2.79 2.80 2.82 2.84 2.85 2.87 2.87 2.92 2.94 2.96 2.98 3.02 3.03 3.05 3.07 3.16 3.18 3.20 3.25 3.29 3.34 3.37 3.39 3.41 3.41 3.38 3.38 3.33 3.28 3.23 3.20 3.11 3.06 3.08 2.53 3.26 6.16 4.65 4.20 4.16 4.04 4.00 4.00 3.85 3.66 3.66 3.81 4.02 3.99 3.98 4.02 4.09 4.09 4.01 3.94 4.33 4.37 4.37 4.24 4.07 3.96 3.96 3.99 3.85 3.85 3.88 3.88 3.91 3.91 3.91 3.94 3.64 3.55 3.11 3.06 3.72 4.41 4.32 4.32 4.97 4.97 4.97 4.91 4.90 4.90 4.90 4.84 5.53 5.25 4.89 4.21 3.37 2.81 2.69 2.75 3.50 3.92 3.96 3.81 3.85 3.58 3.38 3.55 3.30 3.46 3.52 3.98 4.05 3.03 2.75 3.42 9.56 5.19 5.76 18.27 21.00 26.24 3.62 1.67 1.96 2.07 2.06 2.05 2.14 2.12 2.08 2.17 2.16 2.12 2.15 2.23 2.18 2.06 2.03 2.08 1.90 3.20 51.99 69.29 5.77 4.11 3.03 2.27 2.71 2.71 2.71 2.71 2.71 2.71 2.70 2.70 2.74 2.74 2.74 2.73 2.73 2.73 2.73 2.73 2.73 2.73 2.73 2.74 2.74 2.76 2.76 2.76 2.79 2.79 2.81 2.81 2.83 2.83 2.85 2.84 2.86 2.86 2.88 2.88 2.90 2.90 2.90 2.90 2.94 2.94 2.91 2.91 2.91 2.95 2.97 2.97 3.02 3.01 3.01 3.03 3.03 3.06 3.05 3.05 3.05 3.05 3.07 3.07 3.09 3.09 3.09 3.09 3.14 3.14 3.14 3.16 3.16 3.18 3.18 3.18 3.26 3.26 3.25 3.25 3.25 3.25 3.25 3.25 3.30 3.30 3.33 3.33 3.35 3.35 3.38 3.38 3.40 3.40 3.40 3.43 3.43 3.46 3.46 3.46 3.61 3.61 3.61 3.61 3.61 3.61 3.61 3.60 3.67 3.67 3.67 3.67 3.67 3.66 3.66 3.66 3.80 3.80 3.84 3.87 3.87 3.91 3.95 3.94 4.02 4.02 4.02 4.06 4.06 4.10 4.10 4.10
6.20 6.19 6.19 6.18 6.18 6.18 6.17 6.17 6.16 6.16 6.16 6.15 6.15 6.14 6.14 6.14 6.29 6.21 6.05 5.97 5.89 5.89 5.88 5.95 6.10 6.02 5.94 5.79 5.79 5.78 5.85 5.92 5.70 5.70 5.70 5.62 5.55 5.55 5.48 5.48 5.41 5.41 5.41 5.40 5.34 5.33 5.33 5.39 5.26 5.26 5.20 5.20 5.14 5.13 5.07 5.07 4.96 4.90 4.90 4.85 4.79 4.74 4.69 4.69 4.55 4.50 4.41 4.33 4.25 4.13 4.09 4.05 3.91 3.88 3.81 3.75 3.65 3.60 3.57 3.54 3.43 3.38 3.32 3.27 3.20 3.14 3.09 3.07 2.99 2.99 2.98 2.96 2.96 2.94 2.94 2.94 2.88 2.88 2.88 2.87 2.87 2.87 2.87 2.87 2.85 2.85 2.83 2.82 2.81 2.80 2.78 2.78 2.76 2.76 2.76 2.76 2.76 2.76 2.75 2.75 2.75 2.75 2.75 2.75 2.74 2.74 2.74 2.74 2.81 2.81 2.82 2.82 2.84 2.85 2.87 2.87 2.92 2.94 2.96 2.98 3.02 3.03 3.05 3.07 3.18 3.18 3.22 3.27 3.29 3.34 3.39 3.39 3.44 3.44 3.41 3.41 3.35 3.30 3.25 3.22 3.20 3.04 3.06 2.57 3.42 6.52 4.65 4.08 4.12 3.97 3.93 3.93 3.79 3.60 3.60 3.78 3.75 3.74 3.81 3.94 4.09 4.17 4.16 4.12 3.76 3.76 3.76 3.72 3.69 3.66 3.66 3.65 3.65 3.68 3.68 3.68 3.71 3.70 3.74 3.73 3.76 3.67 3.06 2.84 3.22 3.57 3.37 3.24 3.19 3.14 3.07 2.98 2.88 2.80 2.75 2.71 2.76 2.80 2.91 2.91 2.66 2.43 2.47 2.68 3.45 3.92 4.00 3.81 3.92 3.74 3.52 3.64 3.58 3.95 3.67 3.98 4.48 3.29 2.79 3.54 6.90 4.01 4.78 16.81 19.09 34.98 3.96 1.70 2.36 2.54 2.52 2.46 2.57 2.55 2.46 2.53 2.46 2.44 2.47 2.54 2.56 2.48 2.44 2.45 1.96 3.10 41.59 207.84 6.02 3.61 2.79 2.32 2.71 2.71 2.71 2.71 2.71 2.71 2.70 2.70 2.74 2.74 2.74 2.73 2.73 2.73 2.73 2.73 2.73 2.73 2.74 2.74 2.76 2.76 2.76 2.78 2.79 2.79 2.81 2.81 2.83 2.83 2.85 2.84 2.86 2.86 2.88 2.88 2.90 2.90 2.90 2.90 2.94 2.94 2.93 2.91 2.93 2.95 2.97 2.99 3.01 3.01 3.01 3.03 3.03 3.05 3.05 3.05 3.05 3.05 3.07 3.07 3.09 3.09 3.09 3.09 3.14 3.14 3.14 3.16 3.16 3.18 3.18 3.18 3.26 3.25 3.25 3.25 3.25 3.25 3.25 3.25 3.30 3.30 3.33 3.32 3.35 3.35 3.38 3.38 3.40 3.40 3.40 3.43 3.43 3.46 3.46 3.46 3.61 3.61 3.61 3.61 3.61 3.61 3.60 3.60 3.70 3.70 3.70 3.70 3.70 3.70 3.70 3.70 3.80 3.80 3.84 3.87 3.87 3.91 3.95 3.94 4.02 4.02 4.02 4.06 4.06 4.10 4.10 4.10
6.20 6.19 6.19 6.18 6.18 6.17 6.17 6.17 6.16 6.16 6.15 6.15 6.15 6.14 6.14 6.13 6.05 5.97 5.97 5.97 5.96 6.03 6.11 6.10 6.02 6.02 5.94 5.86 5.86 5.85 5.85 5.85 5.70 5.63 5.63 5.62 5.62 5.55 5.55 5.54 5.29 5.29 5.23 5.28 5.28 5.33 5.33 5.27 5.26 5.26 5.20 5.20 5.14 5.13 5.07 5.07 4.96 4.90 4.90 4.85 4.79 4.74 4.69 4.69 4.55 4.50 4.41 4.33 4.24 4.13 4.09 4.05 3.91 3.88 3.81 3.75 3.65 3.59 3.56 3.54 3.43 3.37 3.32 3.27 3.20 3.14 3.09 3.07 2.99 2.99 2.98 2.96 2.96 2.94 2.94 2.94 2.88 2.88 2.88 2.87 2.87 2.87 2.87 2.87 2.85 2.85 2.83 2.82 2.80 2.80 2.78 2.78 2.76 2.76 2.76 2.76 2.76 2.76 2.75 2.75 2.75 2.75 2.75 2.75 2.74 2.74 2.74 2.74 2.81 2.81 2.82 2.84 2.85 2.87 2.89 2.89 2.92 2.94 2.96 2.98 3.02 3.03 3.05 3.07 3.18 3.20 3.22 3.27 3.32 3.37 3.39 3.41 3.47 3.46 3.46 3.43 3.38 3.33 3.27 3.25 3.25 3.04 3.08 2.65 3.56 6.72 4.60 4.01 4.08 3.93 3.89 3.89 3.75 3.57 3.57 3.72 3.71 3.71 3.74 3.84 3.98 4.09 4.05 4.01 3.79 3.76 3.69 3.66 3.63 3.60 3.56 3.50 3.42 3.42 3.44 3.44 3.44 3.47 3.46 3.46 3.87 3.73 3.06 2.75 3.10 3.54 3.45 3.31 3.19 3.16 3.09 3.03 2.94 2.88 2.84 2.80 2.64 2.71 2.89 2.95 2.67 2.41 2.48 2.79 3.29 3.85 3.92 3.71 3.85 3.78 3.58 3.67 3.61 3.91 3.55 3.80 4.48 3.40 2.85 3.45 5.26 3.50 4.42 21.01 34.99 59.96 4.03 1.69 2.16 2.33 2.26 2.14 2.13 2.10 2.03 2.06 2.09 2.09 2.09 2.13 2.22 2.31 2.35 2.33 2.03 2.95 25.99 83.12 5.47 2.97 2.49 2.38 2.71 2.71 2.71 2.71 2.71 2.70 2.70 2.70 2.74 2.74 2.73 2.73 2.73 2.73 2.73 2.73 2.75 2.75 2.74 2.76 2.76 2.78 2.78 2.78 2.79 2.79 2.81 2.81 2.83 2.83 2.85 2.84 2.86 2.86 2.88 2.88 2.90 2.90 2.90 2.90 2.96 2.96 2.93 2.93 2.95 2.97 2.99 2.99 3.01 3.01 3.01 3.03 3.03 3.05 3.05 3.05 3.05 3.05 3.07 3.07 3.09 3.09 3.09 3.09 3.14 3.14 3.14 3.16 3.16 3.18 3.18 3.18 3.26 3.25 3.25 3.25 3.25 3.25 3.25 3.25 3.30 3.30 3.33 3.32 3.35 3.35 3.38 3.38 3.40 3.40 3.40 3.43 3.43 3.46 3.46 3.46 3.61 3.61 3.61 3.61 3.61 3.61 3.60 3.60 3.70 3.70 3.70 3.70 3.70 3.70 3.70 3.70 3.80 3.80 3.83 3.87 3.87 3.91 3.94 3.94 4.02 4.02 4.02 4.06 4.06 4.10 4.10 4.10
6.19 6.19 6.19 6.18 6.18 6.17 6.17 6.17 6.16 6.16 6.15 6.15 6.15 6.14 6.14 6.13 5.76 5.83 5.97 6.12 6.28 6.53 6.62 6.70 6.02 6.02 5.94 5.93 5.86 5.85 5.78 5.78 5.63 5.63 5.63 5.62 5.62 5.62 5.61 5.61 5.35 5.23 5.17 5.22 5.34 5.46 5.39 5.27 5.26 5.26 5.20 5.20 5.13 5.13 5.07 5.07 4.96 4.90 4.90 4.85 4.79 4.74 4.69 4.69 4.59 4.54 4.45 4.37 4.24 4.17 4.13 4.09 3.91 3.88 3.81 3.74 3.65 3.59 3.56 3.53 3.43 3.37 3.32 3.27 3.20 3.14 3.09 3.07 2.99 2.98 2.98 2.96 2.96 2.94 2.94 2.94 2.88 2.88 2.87 2.87 2.87 2.87 2.87 2.87 2.85 2.84 2.83 2.82 2.80 2.80 2.78 2.78 2.76 2.76 2.76 2.76 2.76 2.76 2.75 2.75 2.77 2.77 2.76 2.76 2.76 2.76 2.76 2.76 2.82 2.82 2.84 2.86 2.87 2.87 2.89 2.89 2.92 2.94 2.96 2.98 3.01 3.03 3.05 3.07 3.20 3.20 3.25 3.29 3.32 3.37 3.42 3.41 3.49 3.49 3.49 3.46 3.40 3.35 3.32 3.27 3.25 3.06 3.15 2.73 3.67 6.72 4.55 4.04 4.04 3.93 3.89 3.89 3.75 3.54 3.56 3.71 3.88 3.84 3.81 3.80 3.84 3.80 3.73 3.64 3.97 3.86 3.76 3.66 3.63 3.54 3.45 3.37 3.31 3.31 3.31 3.33 3.33 3.36 3.35 3.35 3.46 3.43 2.92 2.68 3.19 4.00 4.15 4.07 4.27 4.31 4.40 4.49 4.58 4.68 4.79 4.84 4.84 4.83 5.00 4.57 3.45 2.74 2.69 3.03 3.16 3.75 3.81 3.62 3.78 3.81 3.64 3.67 3.64 3.67 3.49 3.87 4.53 3.73 3.19 3.63 5.39 3.82 4.57 21.00 38.17 24.69 3.50 1.64 1.67 1.85 1.89 1.86 1.94 2.01 2.04 2.12 2.17 2.13 2.03 1.93 1.91 1.93 1.87 1.77 2.08 2.83 21.88 83.11 5.13 2.59 2.33 2.58 2.71 2.71 2.71 2.71 2.71 2.70 2.70 2.70 2.74 2.74 2.73 2.73 2.73 2.73 2.73 2.73 2.75 2.76 2.76 2.76 2.78 2.78 2.80 2.79 2.79 2.79 2.81 2.81 2.83 2.83 2.84 2.84 2.86 2.86 2.88 2.88 2.90 2.90 2.90 2.90 2.98 2.96 2.95 2.95 2.95 2.97 2.99 3.02 3.01 3.01 3.01 3.03 3.03 3.05 3.05 3.05 3.05 3.05 3.07 3.07 3.09 3.09 3.09 3.09 3.14 3.14 3.13 3.16 3.16 3.18 3.18 3.18 3.25 3.25 3.25 3.25 3.25 3.25 3.25 3.25 3.30 3.30 3.32 3.32 3.35 3.35 3.38 3.38 3.40 3.40 3.40 3.43 3.43 3.46 3.46 3.45 3.61 3.61 3.61 3.61 3.61 3.60 3.60 3.60 3.74 3.74 3.73 3.73 3.73 3.73 3.73 3.73 3.80 3.80 3.83 3.87 3.87 3.91 3.94 3.94 4.02 4.02 4.02 4.06 4.06 4.10 4.10 4.10
6.19 6.19 6.19 6.18 6.18 6.17 6.17 6.17 6.16 6.16 6.15 6.15 6.15 6.14 6.14 6.13 5.98 6.05 6.12 6.20 6.27 6.35 6.35 6.35 5.95 5.94 5.94 5.93 5.93 5.85 5.78 5.77 5.57 5.56 5.63 5.62 5.62 5.62 5.61 5.61 5.47 5.35 5.22 5.34 5.52 5.65 5.52 5.39 5.26 5.26 5.20 5.19 5.13 5.13 5.07 5.07 4.96 4.90 4.90 4.85 4.79 4.74 4.69 4.69 4.64 4.59 4.50 4.41 4.28 4.20 4.16 4.12 3.91 3.88 3.81 3.74 3.65 3.59 3.56 3.53 3.43 3.37 3.32 3.27 3.20 3.14 3.09 3.07 2.99 2.98 2.98 2.96 2.96 2.94 2.94 2.94 2.88 2.88 2.87 2.87 2.87 2.87 2.87 2.87 2.85 2.84 2.82 2.82 2.80 2.80 2.78 2.78 2.76 2.76 2.76 2.76 2.76 2.75 2.75 2.75 2.77 2.77 2.76 2.76 2.76 2.76 2.76 2.76 2.82 2.82 2.84 2.86 2.87 2.89 2.89 2.90 2.92 2.94 2.96 2.98 3.01 3.03 3.05 3.07 3.20 3.23 3.25 3.29 3.34 3.39 3.42 3.44 3.52 3.52 3.52 3.49 3.43 3.38 3.32 3.30 3.22 3.06 3.22 2.82 3.77 6.62 4.50 4.08 4.08 3.93 3.89 3.89 3.75 3.57 3.56 3.71 3.91 3.84 3.77 3.74 3.74 3.67 3.55 3.46 3.38 3.30 3.22 3.20 3.22 3.22 3.12 3.06 3.36 3.36 3.39 3.39 3.41 3.41 3.41 3.43 3.40 3.43 2.88 2.60 2.99 3.66 3.69 3.50 3.56 3.62 3.74 3.88 4.06 4.22 4.35 4.43 4.68 4.67 4.89 4.47 3.29 2.57 2.52 2.86 3.07 3.65 3.78 3.56 3.74 3.84 3.71 3.70 3.80 3.46 3.49 4.09 4.48 3.97 3.63 3.69 6.28 4.38 4.33 11.67 24.69 26.22 3.99 1.98 2.49 3.10 3.55 3.64 4.18 4.75 5.16 5.80 5.72 5.56 4.74 3.97 3.69 3.50 2.97 2.54 2.04 2.68 19.79 138.49 5.00 2.37 2.23 2.77 2.71 2.71 2.71 2.71 2.71 2.70 2.70 2.70 2.74 2.74 2.73 2.73 2.73 2.73 2.73 2.73 2.76 2.76 2.76 2.78 2.78 2.80 2.79 2.79 2.79 2.79 2.81 2.81 2.83 2.83 2.84 2.84 2.86 2.86 2.88 2.88 2.90 2.90 2.90 2.89 2.98 2.98 2.95 2.95 2.95 2.97 3.02 3.01 3.01 3.01 3.01 3.03 3.03 3.05 3.05 3.05 3.05 3.05 3.07 3.07 3.09 3.09 3.09 3.09 3.14 3.14 3.13 3.16 3.16 3.18 3.18 3.18 3.25 3.25 3.25 3.25 3.25 3.25 3.25 3.25 3.30 3.30 3.32 3.32 3.35 3.35 3.38 3.37 3.40 3.40 3.40 3.43 3.43 3.46 3.46 3.45 3.61 3.61 3.61 3.61 3.60 3.60 3.60 3.60 3.74 3.73 3.73 3.73 3.73 3.73 3.73 3.73 3.80 3.80 3.83 3.87 3.87 3.91 3.94 3.94 4.02 4.02 4.02 4.06 4.06 4.10 4.10 4.10
6.19 6.19 6.18 6.18 6.18 6.17 6.17 6.16 6.16 6.16 6.15 6.15 6.14 6.14 6.14 6.13 6.46 6.46 6.37 6.20 5.96 5.81 5.60 5.53 5.94 5.94 6.01 6.01 5.93 5.85 5.78 5.70 5.57 5.56 5.56 5.62 5.62 5.61 5.61 5.61 5.60 5.47 5.34 5.46 5.73 5.87 5.72 5.51 5.26 5.26 5.20 5.19 5.13 5.13 5.07 5.07 4.96 4.90 4.90 4.84 4.79 4.74 4.69 4.69 4.68 4.63 4.54 4.45 4.32 4.24 4.16 4.16 3.91 3.87 3.81 3.74 3.65 3.59 3.56 3.53 3.43 3.37 3.32 3.27 3.20 3.13 3.09 3.07 2.99 2.98 2.98 2.96 2.96 2.94 2.94 2.93 2.88 2.88 2.87 2.87 2.87 2.87 2.87 2.87 2.85 2.84 2.82 2.82 2.80 2.80 2.78 2.78 2.76 2.76 2.76 2.76 2.76 2.75 2.75 2.75 2.77 2.76 2.76 2.76 2.76 2.76 2.76 2.76 2.82 2.84 2.84 2.85 2.87 2.89 2.91 2.90 2.92 2.94 2.96 2.98 3.01 3.03 3.05 3.07 3.20 3.22 3.25 3.29 3.34 3.39 3.42 3.44 3.52 3.52 3.52 3.49 3.46 3.40 3.35 3.32 3.22 3.08 3.29 2.86 3.80 6.52 4.46 4.12 4.08 3.96 3.89 3.92 3.75 3.57 3.59 3.75 3.78 3.71 3.68 3.67 3.70 3.67 3.58 3.49 3.40 3.35 3.32 3.40 3.54 3.62 3.59 3.53 3.47 3.50 3.50 3.50 3.52 3.52 3.55 3.55 3.97 3.90 3.06 2.56 2.74 3.01 2.85 2.62 2.97 2.99 3.03 3.07 3.13 3.18 3.23 3.25 2.97 3.08 3.37 3.48 2.91 2.47 2.56 3.03 3.03 3.65 3.78 3.53 3.74 3.88 3.74 3.74 3.80 3.27 3.37 4.01 4.09 3.83 3.63 3.42 6.28 4.42 3.78 7.63 23.32 4195.17 7.23 3.13 8.91 29.91 4185.55 83.67 139.39 208.99 69.63 139.20 52.18 417.23 417.05 69.48 138.89 208.25 18.92 8.49 1.93 2.49 15.39 69.23 4.72 2.22 2.13 2.78 2.71 2.71 2.71 2.71 2.70 2.70 2.70 2.70 2.74 2.73 2.73 2.73 2.73 2.73 2.73 2.73 2.76 2.76 2.76 2.78 2.78 2.80 2.79 2.79 2.79 2.79 2.81 2.81 2.83 2.83 2.84 2.84 2.86 2.86 2.88 2.88 2.90 2.90 2.90 2.89 2.98 2.98 2.95 2.95 2.97 2.99 3.02 3.04 3.01 3.01 3.01 3.03 3.03 3.05 3.05 3.05 3.05 3.05 3.07 3.07 3.09 3.09 3.09 3.09 3.14 3.13 3.13 3.16 3.16 3.18 3.18 3.18 3.25 3.25 3.25 3.25 3.25 3.25 3.25 3.25 3.30 3.30 3.32 3.32 3.35 3.35 3.38 3.37 3.40 3.40 3.40 3.43 3.43 3.46 3.45 3.45 3.61 3.61 3.61 3.61 3.60 3.60 3.60 3.60 3.73 3.73 3.73 3.73 3.73 3.73 3.73 3.73 3.80 3.80 3.83 3.87 3.87 3.90 3.94 3.94 4.02 4.02 4.02 4.06 4.06 4.10 4.10 4.10
6.19 6.19 6.18 6.18 6.10 6.02 5.94 5.86 6.16 6.16 6.15 6.15 6.14 6.14 6.14 6.13 6.13 6.20 6.28 6.28 6.19 6.11 5.88 5.80 5.87 5.87 5.86 5.86 5.86 5.85 5.85 5.84 5.70 5.70 5.76 5.76 5.75 5.68 5.61 5.54 5.60 5.60 5.66 5.59 5.46 5.21 4.99 4.83 5.38 5.32 5.25 5.14 5.08 5.02 5.02 5.01 4.96 5.12 5.00 4.75 4.84 5.10 4.99 4.64 4.59 4.59 4.54 4.49 4.36 4.24 4.16 4.08 4.01 3.94 3.84 3.71 3.62 3.54 3.51 3.48 3.43 3.40 3.35 3.30 3.22 3.18 3.13 3.11 3.07 3.04 3.04 3.02 3.00 2.98 2.96 2.95 2.91 2.91 2.91 2.91 2.91 2.91 2.90 2.90 2.86 2.86 2.86 2.86 2.86 2.85 2.85 2.85 2.80 2.79 2.79 2.79 2.79 2.79 2.79 2.79 2.77 2.76 2.78 2.78 2.79 2.79 2.79 2.81 2.82 2.82 2.84 2.85 2.87 2.89 2.89 2.90 2.92 2.92 2.94 2.97 3.01 3.07 3.12 3.16 3.20 3.22 3.27 3.34 3.39 3.42 3.44 3.44 3.55 3.52 3.49 3.46 3.40 3.38 3.35 3.32 3.45 3.27 2.90 3.29 5.14 5.60 4.28 4.16 4.08 3.93 3.86 3.82 3.63 3.45 3.48 3.68 3.88 3.62 3.91 4.29 3.98 3.77 3.83 3.76 3.86 3.86 3.82 3.75 3.72 3.65 3.62 3.59 3.71 3.77 3.81 3.84 3.80 3.80 3.83 3.90 4.82 3.79 3.17 3.08 5.16 15.27 11.87 9.94 15.25 14.72 13.76 12.54 11.52 10.65 10.14 9.90 9.45 11.81 11.80 26.54 7.32 3.03 2.72 2.70 2.66 2.92 3.59 4.32 4.15 3.58 3.58 4.02 4.02 3.61 3.70 4.05 4.13 4.21 3.93 3.31 6.37 5.12 4.29 7.77 104.91 52.43 6.99 3.15 10.22 32.21 14.95 10.73 10.72 9.72 10.71 8.52 9.07 8.51 8.18 8.17 8.50 10.16 18.10 83.21 2.91 2.25 41.55 207.67 3.55 1.83 2.82 2.71 2.74 2.74 2.74 2.74 2.74 2.74 2.74 2.74 2.77 2.77 2.77 2.79 2.79 2.80 2.80 2.80 2.80 2.80 2.80 2.80 2.80 2.79 2.79 2.79 2.85 2.85 2.85 2.87 2.87 2.88 2.88 2.88 2.88 2.88 2.90 2.90 2.92 2.92 2.92 2.94 2.98 2.98 3.00 3.00 3.02 3.02 3.04 3.04 3.03 3.03 3.03 3.05 3.05 3.08 3.07 3.07 3.14 3.14 3.14 3.14 3.14 3.14 3.14 3.14 3.16 3.16 3.16 3.18 3.18 3.20 3.20 3.20 3.25 3.25 3.25 3.28 3.28 3.30 3.30 3.30 3.38 3.38 3.38 3.41 3.41 3.43 3.43 3.43 3.49 3.49 3.49 3.49 3.52 3.52 3.55 3.54 3.58 3.57 3.61 3.60 3.64 3.64 3.63 3.67 3.73 3.73 3.77 3.77 3.80 3.80 3.84 3.83 3.83 3.83 3.83 3.87 3.87 3.90 3.90 3.90 4.10 4.10 4.10 4.10 4.10 4.10 4.10 4.10
6.11 6.19 6.18 6.18 6.10 6.02 5.94 5.86 6.16 6.16 6.15 6.15 6.14 6.14 6.14 6.13 6.13 6.20 6.28 6.28 6.27 6.19 6.03 5.95 5.94 5.94 5.94 5.93 5.93 5.92 5.92 5.92 5.70 5.76 5.76 5.76 5.75 5.68 5.61 5.54 5.54 5.53 5.53 5.53 5.59 5.65 5.72 5.78 5.32 5.32 5.20 5.14 5.08 5.07 5.07 5.12 4.90 5.06 4.95 4.79 4.89 5.16 5.04 4.73 4.64 4.59 4.54 4.49 4.36 4.28 4.16 4.12 4.01 3.94 3.84 3.74 3.62 3.56 3.51 3.48 3.43 3.40 3.35 3.30 3.22 3.18 3.13 3.11 3.07 3.04 3.04 3.02 3.00 2.98 2.95 2.95 2.91 2.91 2.91 2.91 2.91 2.90 2.90 2.90 2.86 2.86 2.86 2.86 2.86 2.85 2.85 2.85 2.80 2.79 2.79 2.79 2.79 2.79 2.79 2.78 2.77 2.78 2.78 2.78 2.79 2.79 2.81 2.81 2.82 2.84 2.84 2.85 2.87 2.89 2.90 2.90 2.92 2.94 2.96 2.97 3.03 3.10 3.14 3.18 3.23 3.25 3.29 3.34 3.39 3.44 3.44 3.44 3.55 3.52 3.49 3.46 3.40 3.37 3.35 3.32 3.37 3.24 3.00 3.47 5.14 5.26 4.24 4.16 4.04 3.93 3.89 3.85 3.60 3.37 3.34 3.50 3.71 3.47 3.55 3.64 3.47 3.41 3.52 3.49 3.13 3.13 3.13 3.13 3.15 3.17 3.17 3.19 3.26 3.28 3.31 3.31 3.28 3.28 3.28 3.30 3.20 3.08 2.84 2.56 3.32 5.21 4.91 4.64 4.15 4.10 4.02 3.91 3.80 3.74 3.64 3.61 3.73 4.05 4.34 6.15 4.56 2.77 2.65 2.70 2.82 3.09 3.74 4.36 4.14 3.58 3.52 3.84 3.64 3.35 3.54 3.94 4.01 4.13 3.90 3.34 6.37 5.25 4.42 7.77 69.93 34.95 6.76 3.10 9.97 32.20 16.09 11.62 11.61 10.45 11.60 8.88 10.18 9.48 9.06 8.68 8.50 9.68 14.86 34.67 2.89 2.22 34.62 103.82 3.46 1.81 2.80 2.71 2.76 2.76 2.76 2.76 2.76 2.76 2.76 2.75 2.77 2.77 2.77 2.79 2.79 2.80 2.80 2.80 2.80 2.80 2.80 2.80 2.80 2.79 2.79 2.79 2.85 2.85 2.85 2.87 2.86 2.88 2.88 2.88 2.88 2.90 2.90 2.90 2.92 2.92 2.94 2.93 2.98 2.98 3.00 3.00 3.02 3.02 3.04 3.04 3.03 3.03 3.03 3.05 3.05 3.07 3.07 3.07 3.14 3.14 3.14 3.14 3.14 3.14 3.14 3.14 3.16 3.16 3.16 3.18 3.18 3.20 3.20 3.20 3.25 3.25 3.25 3.28 3.27 3.30 3.30 3.30 3.38 3.38 3.38 3.41 3.40 3.43 3.43 3.43 3.49 3.49 3.49 3.49 3.52 3.52 3.55 3.54 3.57 3.61 3.60 3.60 3.64 3.63 3.67 3.67 3.73 3.73 3.77 3.77 3.80 3.80 3.84 3.83 3.83 3.83 3.83 3.87 3.87 3.90 3.90 3.90 4.10 4.10 4.10 4.10 4.10 4.10 4.10 4.09
6.11 6.19 6.18 6.18 6.17 6.09 6.01 5.93 6.16 6.15 6.15 6.15 6.14 6.14 6.13 6.13 6.13 6.20 6.28 6.36 6.36 6.35 6.26 6.18 6.02 6.01 6.01 6.01 6.00 6.00 5.99 5.99 5.77 5.76 5.76 5.83 5.75 5.68 5.61 5.54 5.60 5.47 5.40 5.40 5.52 5.79 6.09 6.33 5.26 5.26 5.20 5.13 5.13 5.13 5.18 5.18 4.96 5.01 4.95 4.84 4.94 5.16 5.04 4.83 4.63 4.63 4.58 4.49 4.40 4.28 4.16 4.12 4.05 3.97 3.87 3.74 3.65 3.56 3.51 3.51 3.42 3.40 3.37 3.30 3.25 3.18 3.15 3.13 3.06 3.04 3.04 3.02 3.00 2.98 2.95 2.95 2.91 2.91 2.91 2.91 2.91 2.90 2.90 2.90 2.86 2.86 2.86 2.86 2.86 2.85 2.85 2.85 2.80 2.79 2.79 2.79 2.79 2.79 2.79 2.78 2.78 2.78 2.78 2.80 2.79 2.81 2.81 2.81 2.84 2.84 2.86 2.87 2.89 2.91 2.90 2.92 2.96 2.96 2.98 2.99 3.05 3.12 3.16 3.20 3.25 3.27 3.32 3.39 3.44 3.47 3.47 3.49 3.55 3.55 3.51 3.46 3.43 3.37 3.35 3.34 3.24 3.19 3.19 3.87 5.14 4.85 4.12 4.19 4.04 4.00 4.00 3.92 3.60 3.27 3.20 3.29 3.10 3.12 3.14 3.12 3.12 3.16 3.16 3.11 3.25 3.25 3.22 3.22 3.24 3.27 3.31 3.34 2.97 2.97 2.97 2.94 2.92 2.88 2.86 2.84 2.80 3.06 3.02 2.58 3.08 4.65 4.41 4.19 4.49 4.49 4.49 4.49 4.48 4.48 4.48 4.48 4.21 4.13 4.05 4.88 4.04 2.81 2.68 2.77 2.70 2.94 3.38 3.81 3.84 3.71 3.67 3.80 3.61 3.37 3.63 4.01 4.05 4.17 4.08 3.56 6.18 5.46 4.67 8.07 46.61 27.95 6.55 3.10 9.74 32.20 18.19 13.07 13.93 12.29 13.05 9.94 8.88 8.69 8.87 9.47 9.69 11.25 19.81 69.32 2.89 2.20 29.67 83.04 3.37 1.80 2.78 2.71 2.76 2.76 2.76 2.76 2.76 2.76 2.76 2.75 2.77 2.77 2.79 2.79 2.80 2.80 2.80 2.82 2.82 2.82 2.82 2.82 2.81 2.81 2.81 2.81 2.85 2.85 2.85 2.87 2.86 2.88 2.88 2.88 2.90 2.90 2.90 2.92 2.92 2.94 2.94 2.93 2.98 2.98 3.00 2.99 3.02 3.01 3.04 3.03 3.03 3.03 3.05 3.05 3.08 3.07 3.07 3.10 3.14 3.14 3.14 3.14 3.14 3.14 3.14 3.14 3.16 3.16 3.16 3.18 3.18 3.20 3.20 3.20 3.25 3.25 3.25 3.28 3.27 3.30 3.30 3.30 3.38 3.38 3.38 3.41 3.40 3.43 3.43 3.43 3.49 3.49 3.49 3.49 3.52 3.51 3.54 3.54 3.61 3.61 3.60 3.64 3.64 3.67 3.67 3.67 3.73 3.73 3.77 3.77 3.80 3.80 3.83 3.83 3.83 3.83 3.87 3.87 3.90 3.90 3.90 3.94 4.10 4.10 4.10 4.10 4.10 4.10 4.09 4.09
6.11 6.19 6.18 6.26 6.25 6.17 6.09 6.01 6.16 6.15 6.15 6.15 6.14 6.14 6.13 6.13 6.13 6.20 6.28 6.36 6.35 6.44 6.43 6.43 6.09 6.09 6.09 6.08 6.08 6.07 6.07 6.07 5.77 5.83 5.83 5.83 5.82 5.75 5.68 5.60 5.54 5.47 5.40 5.34 5.33 5.45 5.58 5.64 5.26 5.20 5.19 5.13 5.19 5.18 5.24 5.30 5.12 5.06 4.95 4.95 5.00 5.05 4.94 4.78 4.68 4.63 4.58 4.53 4.40 4.28 4.20 4.12 4.04 3.97 3.87 3.74 3.65 3.59 3.53 3.50 3.45 3.42 3.37 3.32 3.25 3.20 3.15 3.13 3.06 3.04 3.04 3.02 3.00 2.98 2.95 2.95 2.91 2.91 2.91 2.91 2.91 2.90 2.90 2.90 2.86 2.86 2.86 2.86 2.86 2.85 2.85 2.85 2.80 2.79 2.79 2.79 2.79 2.79 2.79 2.78 2.78 2.78 2.80 2.79 2.81 2.81 2.81 2.82 2.86 2.86 2.87 2.89 2.91 2.92 2.92 2.94 2.98 2.98 3.00 3.03 3.07 3.14 3.20 3.23 3.27 3.32 3.37 3.42 3.47 3.50 3.52 3.52 3.58 3.54 3.51 3.48 3.43 3.40 3.37 3.34 3.17 3.13 3.44 4.42 5.14 4.41 4.00 4.28 4.11 4.11 4.19 4.03 3.59 3.20 3.08 3.17 3.01 3.31 3.28 3.14 3.28 3.41 3.23 3.07 3.13 3.09 3.00 2.94 2.91 2.91 2.95 2.97 3.14 3.09 3.05 3.03 3.00 2.94 2.86 2.80 2.78 2.93 2.73 2.28 2.69 3.85 3.42 2.97 3.33 3.39 3.47 3.58 3.70 3.84 3.94 3.98 4.29 3.86 3.69 4.08 3.72 2.99 2.81 2.88 2.82 2.98 3.16 3.33 3.58 3.88 3.87 3.67 3.77 3.54 3.70 3.90 3.83 4.05 4.29 4.00 6.00 5.60 4.83 8.23 41.95 29.95 6.87 3.17 9.74 34.87 19.92 15.49 16.72 14.40 15.46 10.98 9.27 9.48 10.17 10.96 11.57 13.43 23.11 138.62 2.95 2.22 27.69 83.03 3.35 1.80 2.80 2.73 2.76 2.76 2.76 2.76 2.76 2.76 2.75 2.75 2.79 2.79 2.79 2.80 2.80 2.82 2.82 2.82 2.82 2.82 2.82 2.82 2.81 2.81 2.81 2.81 2.85 2.85 2.85 2.86 2.86 2.88 2.88 2.88 2.90 2.90 2.92 2.92 2.94 2.94 2.94 2.96 2.98 2.97 3.00 2.99 3.02 3.01 3.04 3.03 3.06 3.06 3.05 3.08 3.07 3.10 3.10 3.10 3.14 3.14 3.14 3.14 3.14 3.14 3.14 3.13 3.16 3.16 3.16 3.18 3.18 3.20 3.20 3.20 3.25 3.25 3.25 3.27 3.27 3.30 3.30 3.30 3.38 3.38 3.38 3.40 3.40 3.43 3.43 3.43 3.49 3.49 3.49 3.49 3.51 3.51 3.54 3.54 3.61 3.60 3.64 3.64 3.67 3.67 3.67 3.70 3.73 3.73 3.77 3.76 3.80 3.80 3.83 3.83 3.87 3.87 3.87 3.90 3.90 3.94 3.94 3.94 4.10 4.10 4.10 4.10 4.10 4.10 4.09 4.09
6.11 6.19 6.18 6.26 6.25 6.25 6.17 6.16 6.16 6.15 6.15 6.15 6.14 6.14 6.13 6.13 6.20 6.20 6.20 6.27 6.35 6.35 6.43 6.52 6.09 6.09 6.09 6.08 6.08 6.07 6.07 6.07 5.84 5.83 5.90 5.90 5.82 5.75 5.68 5.60 5.41 5.40 5.46 5.52 5.46 5.33 5.21 5.15 5.26 5.26 5.19 5.19 5.19 5.24 5.30 5.36 5.42 5.17 5.00 5.05 5.05 4.94 4.78 4.73 4.68 4.68 4.63 4.53 4.44 4.32 4.20 4.16 4.08 4.01 3.90 3.77 3.68 3.59 3.53 3.53 3.45 3.42 3.39 3.32 3.27 3.20 3.17 3.15 3.06 3.04 3.04 3.02 3.00 2.97 2.95 2.95 2.91 2.91 2.91 2.91 2.91 2.90 2.90 2.90 2.86 2.86 2.86 2.86 2.85 2.85 2.85 2.85 2.80 2.79 2.79 2.79 2.79 2.79 2.79 2.78 2.80 2.80 2.80 2.81 2.81 2.83 2.82 2.82 2.88 2.89 2.89 2.91 2.93 2.94 2.96 2.96 3.02 3.02 3.04 3.08 3.12 3.18 3.23 3.27 3.32 3.34 3.39 3.47 3.53 3.55 3.58 3.58 3.58 3.57 3.54 3.48 3.45 3.40 3.37 3.37 3.15 3.06 3.67 5.14 5.14 4.12 3.93 4.28 4.19 4.23 4.31 4.14 3.62 3.17 3.06 3.15 2.99 3.39 2.97 2.50 2.61 2.74 2.59 2.48 2.48 2.43 2.36 2.29 2.27 2.28 2.30 2.33 2.42 2.39 2.36 2.36 2.36 2.32 2.26 2.20 2.52 2.43 2.17 1.95 2.52 3.89 3.34 2.70 2.85 2.86 2.92 3.00 3.09 3.18 3.25 3.30 3.48 3.29 3.57 4.04 4.04 3.48 2.96 2.92 3.28 3.44 3.36 3.23 3.46 4.02 3.95 3.46 3.80 3.51 3.60 3.66 3.54 3.97 4.83 5.00 5.84 5.60 4.88 8.23 46.60 41.92 7.48 3.25 9.97 38.04 22.01 16.72 18.99 16.71 18.15 12.65 15.45 14.38 14.37 13.88 12.62 12.24 17.33 34.65 3.10 2.27 29.66 138.36 3.32 1.82 2.84 2.76 2.78 2.78 2.78 2.78 2.78 2.77 2.77 2.77 2.79 2.81 2.81 2.80 2.82 2.82 2.84 2.84 2.84 2.84 2.84 2.83 2.83 2.83 2.83 2.83 2.85 2.85 2.85 2.86 2.86 2.88 2.88 2.88 2.92 2.92 2.92 2.94 2.94 2.96 2.96 2.95 2.98 2.97 2.99 2.99 3.01 3.01 3.04 3.03 3.06 3.08 3.08 3.08 3.10 3.10 3.12 3.12 3.14 3.14 3.14 3.14 3.14 3.14 3.14 3.13 3.16 3.16 3.16 3.18 3.18 3.20 3.20 3.20 3.25 3.25 3.25 3.27 3.27 3.30 3.30 3.30 3.38 3.38 3.38 3.40 3.40 3.43 3.43 3.43 3.49 3.49 3.49 3.48 3.51 3.51 3.54 3.54 3.64 3.64 3.64 3.67 3.67 3.70 3.70 3.70 3.73 3.73 3.76 3.76 3.80 3.80 3.83 3.83 3.87 3.91 3.90 3.90 3.94 3.94 3.98 3.98 4.10 4.10 4.10 4.10 4.10 4.09 4.09 4.09
6.11 6.11 6.26 6.34 6.33 6.33 6.24 6.24 6.16 6.15 6.15 6.14 6.14 6.14 6.13 6.13 6.29 6.20 6.20 6.19 6.19 6.27 6.34 6.43 6.02 6.01 6.01 6.00 6.00 6.00 5.99 5.99 5.84 5.91 5.90 5.90 5.89 5.82 5.67 5.67 5.29 5.40 5.53 5.66 5.72 5.58 5.39 5.26 5.38 5.31 5.25 5.25 5.19 5.24 5.30 5.29 5.48 5.17 5.00 5.11 5.10 4.94 4.78 4.78 4.73 4.68 4.63 4.58 4.44 4.32 4.23 4.16 4.08 4.01 3.90 3.77 3.68 3.62 3.56 3.53 3.48 3.45 3.39 3.34 3.27 3.22 3.17 3.15 3.06 3.04 3.04 3.02 3.00 2.97 2.95 2.95 2.91 2.91 2.91 2.91 2.91 2.90 2.90 2.90 2.86 2.86 2.86 2.86 2.85 2.85 2.85 2.85 2.79 2.79 2.79 2.79 2.79 2.79 2.78 2.78 2.80 2.81 2.81 2.81 2.83 2.83 2.84 2.84 2.89 2.91 2.91 2.93 2.95 2.96 2.98 2.98 3.04 3.06 3.08 3.10 3.16 3.21 3.28 3.30 3.37 3.40 3.45 3.50 3.55 3.58 3.61 3.61 3.60 3.57 3.54 3.51 3.45 3.43 3.40 3.37 3.22 3.02 3.84 5.75 5.14 3.90 3.86 4.32 4.15 4.27 4.35 4.14 3.59 3.15 3.06 3.17 3.14 3.47 2.61 2.00 2.03 2.17 2.09 2.05 2.53 2.47 2.38 2.33 2.32 2.34 2.41 2.45 2.30 2.28 2.27 2.31 2.36 2.36 2.31 2.23 2.51 2.45 2.35 2.43 4.36 25.14 23.73 12.20 13.77 13.76 13.75 13.74 13.74 13.73 13.72 13.72 10.63 8.67 11.48 10.61 7.57 4.87 3.12 2.79 2.96 3.41 3.50 3.18 3.30 3.95 4.06 3.52 3.87 3.60 3.70 3.69 3.57 4.25 6.09 7.25 5.75 5.60 4.82 7.92 52.42 69.86 7.76 3.20 10.46 46.48 23.23 16.72 18.99 17.40 20.87 13.91 17.38 16.67 16.03 15.43 13.43 13.42 19.81 46.19 3.30 2.32 31.94 207.51 3.29 1.83 2.86 2.78 2.80 2.80 2.80 2.79 2.79 2.79 2.79 2.79 2.81 2.81 2.81 2.82 2.82 2.84 2.84 2.84 2.84 2.84 2.83 2.83 2.83 2.83 2.83 2.83 2.85 2.85 2.85 2.86 2.86 2.88 2.88 2.88 2.92 2.94 2.94 2.94 2.96 2.96 2.98 2.98 2.97 2.97 2.99 2.99 3.01 3.01 3.03 3.03 3.08 3.08 3.08 3.10 3.10 3.12 3.12 3.12 3.14 3.14 3.14 3.14 3.14 3.14 3.13 3.13 3.16 3.16 3.15 3.18 3.18 3.20 3.20 3.20 3.25 3.25 3.25 3.27 3.27 3.30 3.30 3.30 3.38 3.38 3.38 3.40 3.40 3.43 3.43 3.43 3.49 3.49 3.49 3.48 3.51 3.51 3.54 3.54 3.64 3.67 3.67 3.67 3.70 3.70 3.73 3.73 3.73 3.73 3.76 3.76 3.80 3.80 3.83 3.83 3.91 3.90 3.90 3.94 3.94 3.98 3.98 3.98 4.10 4.10 4.10 4.10 4.09 4.09 4.09 4.09
6.11 6.11 6.26 6.34 6.33 6.41 6.33 6.32 6.16 6.15 6.15 6.14 6.14 6.14 6.13 6.13 6.37 6.28 6.12 6.03 6.03 6.10 6.18 6.26 5.94 5.94 5.93 5.93 5.92 5.92 5.92 5.91 5.91 5.91 5.98 5.97 5.89 5.82 5.74 5.67 5.47 5.53 5.53 5.59 5.58 5.58 5.58 5.51 5.51 5.44 5.37 5.25 5.24 5.18 5.24 5.23 5.35 4.95 4.89 5.16 5.22 4.99 4.93 5.04 4.73 4.72 4.67 4.58 4.49 4.36 4.23 4.19 4.12 4.04 3.93 3.80 3.71 3.62 3.56 3.56 3.47 3.45 3.39 3.34 3.29 3.22 3.20 3.17 3.06 3.04 3.04 3.02 3.00 2.97 2.95 2.95 2.91 2.91 2.91 2.91 2.90 2.90 2.90 2.90 2.86 2.86 2.86 2.86 2.85 2.85 2.85 2.85 2.79 2.79 2.79 2.79 2.79 2.79 2.78 2.78 2.82 2.81 2.81 2.83 2.83 2.84 2.84 2.84 2.91 2.91 2.93 2.95 2.96 2.98 2.98 3.00 3.06 3.08 3.10 3.12 3.18 3.25 3.30 3.35 3.40 3.42 3.47 3.56 3.58 3.64 3.64 3.64 3.60 3.60 3.57 3.51 3.48 3.42 3.40 3.39 3.32 2.98 3.90 6.24 5.14 3.80 3.86 4.32 4.07 4.19 4.27 4.07 3.51 3.10 3.06 3.22 3.47 4.09 2.83 2.03 2.11 2.31 2.20 2.14 2.96 2.86 2.73 2.61 2.58 2.63 2.71 2.76 2.97 2.97 3.03 3.21 3.46 3.58 3.49 3.37 2.73 2.76 2.78 2.81 4.45 12.57 14.73 15.25 13.33 12.54 11.84 10.92 10.14 9.67 9.25 8.86 9.66 7.45 9.03 6.74 5.24 4.16 2.82 2.60 2.39 3.13 3.74 3.30 3.15 3.70 4.02 3.70 3.90 3.70 3.83 3.76 3.57 4.25 6.28 8.08 5.92 5.52 4.61 7.23 41.93 69.85 7.35 3.03 11.31 59.76 23.23 16.07 18.16 17.40 21.97 14.90 14.38 13.89 13.89 13.88 13.43 14.86 27.72 207.84 3.46 2.35 29.65 138.32 3.24 1.82 2.84 2.74 2.80 2.80 2.80 2.79 2.79 2.79 2.79 2.79 2.81 2.81 2.82 2.82 2.84 2.84 2.84 2.86 2.86 2.86 2.85 2.85 2.85 2.85 2.85 2.85 2.85 2.85 2.84 2.86 2.86 2.88 2.88 2.88 2.94 2.94 2.94 2.96 2.96 2.98 2.98 2.98 2.97 2.97 2.99 2.99 3.01 3.01 3.03 3.03 3.08 3.08 3.10 3.10 3.12 3.12 3.12 3.14 3.14 3.14 3.14 3.14 3.14 3.14 3.13 3.13 3.16 3.16 3.15 3.18 3.18 3.20 3.20 3.20 3.25 3.25 3.25 3.27 3.27 3.30 3.30 3.30 3.38 3.38 3.38 3.40 3.40 3.43 3.43 3.43 3.49 3.49 3.48 3.48 3.51 3.51 3.54 3.54 3.67 3.67 3.67 3.70 3.70 3.73 3.73 3.73 3.73 3.73 3.76 3.76 3.80 3.80 3.83 3.83 3.91 3.90 3.94 3.94 3.98 3.98 3.98 4.02 4.10 4.10 4.10 4.10 4.09 4.09 4.09 4.09
6.03 6.10 6.26 6.34 6.42 6.41 6.41 6.32 6.16 6.15 6.15 6.14 6.14 6.14 6.13 6.13 6.37 6.28 6.12 5.96 5.95 5.95 6.02 6.10 5.87 5.86 5.86 5.85 5.85 5.85 5.84 5.84 5.91 5.90 5.98 5.97 5.89 5.82 5.74 5.67 5.81 5.66 5.46 5.33 5.27 5.33 5.45 5.51 5.57 5.50 5.37 5.31 5.24 5.18 5.18 5.18 5.17 4.80 4.79 5.11 5.28 5.10 5.04 5.27 4.73 4.72 4.67 4.58 4.49 4.36 4.27 4.19 4.12 4.04 3.93 3.80 3.71 3.62 3.59 3.56 3.47 3.45 3.42 3.34 3.29 3.24 3.20 3.17 3.06 3.04 3.04 3.02 3.00 2.97 2.95 2.95 2.91 2.91 2.91 2.91 2.90 2.90 2.90 2.90 2.86 2.86 2.86 2.86 2.85 2.85 2.85 2.85 2.79 2.79 2.79 2.79 2.79 2.79 2.78 2.78 2.82 2.81 2.81 2.83 2.83 2.84 2.84 2.84 2.91 2.93 2.93 2.95 2.96 2.98 3.00 3.00 3.08 3.08 3.10 3.14 3.18 3.25 3.32 3.35 3.40 3.45 3.50 3.55 3.61 3.64 3.67 3.67 3.60 3.60 3.57 3.51 3.48 3.42 3.40 3.39 3.37 2.96 3.90 6.52 5.14 3.76 3.86 4.32 4.00 4.07 4.18 3.95 3.42 3.06 3.06 3.24 2.99 3.80 2.81 2.09 2.25 2.50 2.30 2.19 2.82 2.72 2.55 2.42 2.36 2.35 2.41 2.45 2.43 2.44 2.51 2.70 2.96 3.11 3.11 3.02 2.69 2.68 2.47 2.02 1.97 2.06 1.92 1.97 1.96 1.95 1.93 1.90 1.88 1.85 1.83 1.82 1.96 1.87 2.06 2.07 2.23 2.52 2.37 2.51 2.25 3.28 4.50 3.71 3.15 3.49 3.87 3.67 3.73 3.57 3.69 3.57 3.29 3.72 5.13 6.18 6.00 5.52 4.51 6.88 34.93 59.86 6.98 2.89 11.96 69.71 23.22 15.48 17.40 16.70 21.96 15.45 18.13 16.67 14.88 13.43 12.24 12.61 19.80 59.37 3.55 2.36 29.65 103.72 3.19 1.81 2.82 2.72 2.80 2.80 2.79 2.79 2.79 2.79 2.79 2.79 2.81 2.82 2.82 2.82 2.84 2.84 2.86 2.86 2.86 2.85 2.85 2.85 2.85 2.85 2.85 2.85 2.85 2.85 2.84 2.86 2.86 2.88 2.88 2.88 2.94 2.94 2.94 2.96 2.96 2.98 2.98 2.97 2.97 2.97 2.99 2.99 3.01 3.01 3.03 3.03 3.08 3.10 3.10 3.10 3.12 3.12 3.14 3.14 3.14 3.14 3.14 3.14 3.14 3.13 3.13 3.13 3.16 3.15 3.15 3.18 3.18 3.20 3.20 3.20 3.25 3.25 3.25 3.27 3.27 3.30 3.30 3.30 3.38 3.38 3.38 3.40 3.40 3.43 3.43 3.43 3.49 3.49 3.48 3.48 3.51 3.51 3.54 3.54 3.67 3.67 3.67 3.70 3.70 3.73 3.73 3.73 3.73 3.73 3.76 3.76 3.80 3.80 3.83 3.83 3.90 3.94 3.94 3.94 3.98 3.98 4.02 4.02 4.10 4.10 4.10 4.09 4.09 4.09 4.09 4.09
6.61 6.61 6.60 6.60 6.59 6.59 6.58 6.58 6.67 6.57 6.48 6.39 6.30 6.30 6.38 6.37 6.54 6.45 6.44 6.35 6.27 6.18 6.10 6.09 6.09 6.01 6.01 6.00 5.92 5.92 5.84 5.84 5.91 6.21 6.13 5.82 5.82 6.04 6.04 5.74 5.67 5.66 5.59 5.59 5.52 5.51 5.51 5.44 5.50 5.37 5.25 5.13 5.07 5.07 5.12 5.18 5.23 5.23 5.17 5.16 5.10 5.10 5.04 5.04 4.82 4.82 4.82 4.82 4.71 4.57 4.44 4.35 4.11 4.08 4.00 3.90 3.80 3.71 3.64 3.61 3.58 3.55 3.50 3.42 3.34 3.27 3.22 3.19 3.08 3.06 3.06 3.04 3.01 2.99 2.97 2.97 2.95 2.95 2.95 2.94 2.94 2.94 2.94 2.94 2.93 2.91 2.91 2.91 2.89 2.89 2.87 2.87 2.85 2.85 2.84 2.84 2.84 2.84 2.84 2.83 2.85 2.85 2.87 2.86 2.88 2.88 2.88 2.90 2.87 2.89 2.91 2.95 2.98 3.02 3.04 3.06 3.12 3.14 3.19 3.23 3.28 3.35 3.37 3.40 3.53 3.56 3.64 3.70 3.73 3.70 3.67 3.66 3.57 3.60 3.63 3.60 3.51 3.45 3.42 3.42 3.24 3.87 4.41 4.65 4.69 4.16 3.96 4.54 4.23 4.49 4.35 3.75 3.32 3.22 3.26 3.29 3.36 3.87 2.81 2.19 2.33 2.40 2.24 2.31 2.51 2.51 2.63 2.87 2.99 2.87 2.76 2.76 2.70 2.94 2.96 2.18 2.01 1.91 2.00 1.90 1.98 2.20 2.87 3.01 2.21 1.90 1.96 1.98 1.98 1.84 1.84 1.94 1.91 1.92 1.99 1.99 1.98 1.97 2.02 2.06 2.05 2.11 2.49 3.09 2.75 2.39 3.44 3.67 2.91 3.46 4.06 4.06 3.76 3.70 3.63 3.51 3.45 3.79 5.13 7.78 7.64 5.38 4.15 6.55 20.96 38.09 8.38 3.10 12.68 22.01 29.86 18.99 17.40 23.19 19.87 13.90 14.37 23.15 18.11 13.43 13.87 13.42 18.08 83.11 3.99 3.12 16.60 82.97 2.59 2.16 2.50 2.84 2.80 2.80 2.79 2.81 2.81 2.83 2.83 2.83 2.88 2.88 2.88 2.88 2.88 2.88 2.88 2.88 2.92 2.91 2.91 2.91 2.91 2.91 2.91 2.91 2.97 2.97 2.97 2.97 2.97 2.96 2.96 2.96 2.96 2.96 2.96 2.98 2.98 3.00 3.00 3.00 3.06 3.06 3.06 3.08 3.08 3.10 3.10 3.10 3.10 3.10 3.10 3.10 3.10 3.09 3.09 3.09 3.14 3.14 3.14 3.16 3.16 3.18 3.18 3.18 3.21 3.23 3.23 3.23 3.25 3.25 3.28 3.28 3.30 3.30 3.33 3.33 3.35 3.35 3.35 3.38 3.41 3.40 3.40 3.43 3.43 3.46 3.46 3.46 3.55 3.55 3.55 3.58 3.57 3.61 3.60 3.60 3.70 3.70 3.70 3.73 3.73 3.77 3.77 3.77 3.87 3.87 3.87 3.91 3.91 3.95 3.94 3.94 4.02 4.02 4.02 4.06 4.06 4.10 4.10 4.10 4.10 4.10 4.09 4.09 4.09 4.09 4.09 4.09
6.61 6.61 6.60 6.60 6.59 6.59 6.58 6.58 6.76 6.66 6.57 6.47 6.38 6.38 6.46 6.46 6.54 6.54 6.44 6.35 6.27 6.18 6.18 6.09 6.09 6.09 6.08 6.00 6.00 5.92 5.91 5.91 5.91 6.21 6.13 5.82 5.82 6.04 6.04 5.74 5.66 5.66 5.66 5.59 5.58 5.51 5.51 5.51 5.50 5.44 5.31 5.19 5.13 5.12 5.12 5.17 5.23 5.23 5.16 5.16 5.10 5.10 5.04 5.04 4.82 4.82 4.87 4.81 4.71 4.57 4.44 4.35 4.11 4.08 4.00 3.90 3.80 3.73 3.67 3.64 3.58 3.55 3.50 3.42 3.34 3.27 3.22 3.19 3.08 3.08 3.06 3.04 3.01 2.99 2.99 2.97 2.95 2.95 2.94 2.94 2.94 2.94 2.94 2.94 2.93 2.93 2.91 2.91 2.89 2.89 2.89 2.87 2.85 2.84 2.84 2.84 2.84 2.84 2.84 2.83 2.85 2.87 2.87 2.86 2.88 2.88 2.90 2.89 2.89 2.91 2.93 2.96 3.00 3.04 3.06 3.08 3.15 3.17 3.19 3.26 3.30 3.35 3.40 3.42 3.53 3.59 3.64 3.70 3.73 3.73 3.70 3.66 3.60 3.63 3.63 3.60 3.54 3.45 3.42 3.39 3.24 4.09 4.65 4.55 4.45 4.16 4.04 4.45 4.15 4.27 4.10 3.65 3.34 3.29 3.31 3.29 3.41 3.80 2.79 2.21 2.33 2.39 2.25 2.32 2.32 2.33 2.44 2.63 2.71 2.61 2.53 2.53 2.95 2.79 2.48 1.90 1.89 1.94 2.12 2.01 1.97 2.13 2.69 2.83 2.17 1.91 1.96 1.95 2.10 2.03 2.12 2.20 2.09 2.06 2.09 2.06 1.98 2.01 2.11 2.23 2.27 2.29 2.48 2.77 2.25 2.07 2.92 3.46 2.93 3.25 3.67 3.94 3.76 3.73 3.69 3.57 3.45 3.72 5.00 7.64 7.50 5.52 4.46 7.62 41.91 418.89 11.32 3.52 20.92 418.12 4179.30 52.22 26.10 29.81 19.87 11.58 10.97 16.66 19.83 27.75 104.01 59.41 27.71 41.55 3.85 3.55 41.50 82.95 2.56 2.24 2.66 3.00 2.80 2.80 2.81 2.81 2.83 2.83 2.83 2.85 2.88 2.88 2.88 2.88 2.88 2.88 2.88 2.88 2.94 2.94 2.93 2.93 2.93 2.93 2.93 2.93 2.97 2.97 2.97 2.97 2.96 2.96 2.96 2.96 2.96 2.96 2.98 2.98 3.00 3.00 3.00 3.02 3.06 3.06 3.08 3.08 3.10 3.10 3.10 3.12 3.12 3.12 3.12 3.12 3.12 3.12 3.12 3.12 3.14 3.14 3.14 3.16 3.16 3.18 3.18 3.18 3.23 3.23 3.23 3.25 3.25 3.28 3.28 3.28 3.30 3.33 3.33 3.33 3.35 3.35 3.38 3.38 3.40 3.40 3.43 3.43 3.46 3.46 3.46 3.49 3.55 3.55 3.58 3.58 3.61 3.61 3.60 3.64 3.70 3.70 3.70 3.73 3.73 3.77 3.77 3.76 3.87 3.87 3.87 3.91 3.91 3.94 3.94 3.94 4.02 4.02 4.02 4.06 4.06 4.10 4.10 4.10 4.10 4.10 4.09 4.09 4.09 4.09 4.09 4.09
6.61 6.60 6.60 6.60 6.59 6.59 6.58 6.58 6.86 6.76 6.66 6.56 6.47 6.46 6.55 6.54 6.54 6.54 6.44 6.35 6.27 6.26 6.18 6.17 6.17 6.16 6.08 6.08 6.00 5.99 5.99 5.91 5.91 6.21 6.13 5.82 5.82 6.04 6.03 5.74 5.66 5.66 5.66 5.59 5.58 5.58 5.51 5.51 5.50 5.44 5.37 5.25 5.18 5.18 5.18 5.17 5.23 5.23 5.16 5.16 5.10 5.10 5.04 5.04 4.82 4.87 4.87 4.81 4.71 4.57 4.44 4.35 4.15 4.07 4.00 3.93 3.83 3.73 3.67 3.64 3.58 3.55 3.50 3.42 3.34 3.26 3.22 3.19 3.08 3.08 3.06 3.04 3.01 3.01 2.99 2.99 2.95 2.95 2.94 2.94 2.94 2.94 2.94 2.94 2.93 2.93 2.93 2.91 2.91 2.89 2.89 2.88 2.85 2.84 2.84 2.84 2.84 2.84 2.84 2.83 2.87 2.87 2.87 2.88 2.88 2.90 2.90 2.89 2.91 2.93 2.95 2.98 3.02 3.06 3.08 3.10 3.17 3.19 3.21 3.28 3.33 3.38 3.43 3.45 3.59 3.62 3.67 3.73 3.76 3.76 3.73 3.69 3.63 3.66 3.66 3.63 3.56 3.48 3.39 3.34 3.26 4.42 5.02 4.32 4.16 4.19 4.15 4.31 4.03 4.07 3.85 3.53 3.42 3.45 3.42 3.34 3.01 3.21 2.58 2.16 2.27 2.33 2.22 2.27 2.41 2.45 2.57 2.71 2.73 2.66 2.64 2.67 3.12 2.88 2.57 2.07 2.21 2.33 2.51 2.27 2.24 2.33 2.81 2.97 2.39 2.20 2.31 2.26 2.13 2.14 2.25 2.22 2.04 2.01 2.02 1.94 2.06 2.03 2.02 2.04 2.06 2.06 2.09 2.14 2.14 1.98 2.50 3.04 2.83 2.95 3.40 4.13 3.76 3.79 3.79 3.63 3.42 3.62 4.78 7.00 10.50 6.99 5.38 10.48 419.03 4188.34 10.21 3.37 5.81 8.53 10.45 8.52 9.94 29.81 4171.12 208.46 83.35 104.14 26.02 18.09 20.80 11.88 7.17 6.39 3.01 3.58 41.49 16.59 2.36 2.29 2.72 3.00 2.82 2.81 2.81 2.83 2.83 2.85 2.85 2.85 2.88 2.88 2.88 2.88 2.88 2.88 2.88 2.88 2.94 2.93 2.93 2.93 2.93 2.93 2.93 2.93 2.97 2.97 2.97 2.97 2.96 2.96 2.96 2.96 2.98 2.98 2.98 2.98 3.00 3.00 3.02 3.02 3.09 3.08 3.08 3.08 3.10 3.10 3.13 3.12 3.12 3.12 3.12 3.12 3.12 3.12 3.12 3.12 3.14 3.14 3.16 3.16 3.18 3.18 3.18 3.21 3.23 3.23 3.25 3.25 3.25 3.28 3.28 3.28 3.33 3.33 3.33 3.35 3.35 3.38 3.38 3.38 3.43 3.43 3.43 3.43 3.46 3.46 3.49 3.49 3.58 3.58 3.58 3.57 3.61 3.60 3.64 3.64 3.70 3.70 3.70 3.73 3.73 3.77 3.77 3.76 3.87 3.87 3.87 3.91 3.91 3.94 3.94 3.94 4.02 4.02 4.02 4.06 4.06 4.10 4.10 4.10 4.14 4.14 4.14 4.14 4.13 4.13 4.13 4.13
6.61 6.60 6.60 6.60 6.59 6.59 6.58 6.58 6.95 6.85 6.75 6.65 6.56 6.55 6.64 6.63 6.63 6.63 6.53 6.44 6.35 6.26 6.18 6.17 6.25 6.24 6.16 6.16 6.07 6.07 6.07 5.98 5.91 6.21 6.13 5.82 5.82 6.04 6.03 5.74 5.73 5.73 5.66 5.65 5.58 5.58 5.57 5.57 5.50 5.50 5.43 5.37 5.30 5.24 5.23 5.17 5.23 5.23 5.16 5.16 5.10 5.10 5.04 5.04 4.87 4.87 4.87 4.86 4.76 4.62 4.48 4.39 4.15 4.11 4.04 3.93 3.83 3.76 3.70 3.64 3.58 3.55 3.50 3.41 3.34 3.26 3.22 3.19 3.10 3.10 3.08 3.06 3.03 3.01 2.99 2.99 2.97 2.97 2.96 2.96 2.96 2.96 2.96 2.95 2.95 2.93 2.93 2.93 2.91 2.91 2.89 2.88 2.86 2.86 2.86 2.86 2.86 2.86 2.85 2.85 2.87 2.87 2.88 2.88 2.90 2.90 2.90 2.91 2.95 2.97 2.99 3.02 3.06 3.08 3.13 3.12 3.19 3.21 3.26 3.30 3.38 3.43 3.48 3.50 3.62 3.68 3.74 3.80 3.83 3.83 3.79 3.76 3.72 3.69 3.66 3.66 3.62 3.50 3.37 3.29 3.39 4.86 5.33 4.16 3.93 4.23 4.23 4.15 4.00 3.92 3.69 3.51 3.50 3.65 3.59 3.42 3.50 3.67 3.18 2.83 3.03 3.09 2.92 2.96 2.90 3.00 3.13 3.12 3.01 2.95 3.05 3.21 3.09 3.28 3.49 2.88 3.02 2.90 2.92 2.53 2.74 2.64 2.97 3.05 2.62 2.62 2.90 2.83 2.66 2.73 2.84 2.73 2.68 3.08 3.43 3.15 3.27 3.12 2.91 2.75 2.81 3.00 3.26 3.41 3.33 2.80 2.87 3.11 2.95 2.91 3.35 4.39 3.73 3.79 3.86 3.69 3.45 3.53 4.42 6.00 10.76 6.66 5.05 9.11 41.90 24.63 6.34 2.72 2.81 3.19 3.29 3.07 3.60 6.42 16.04 26.05 20.83 12.62 6.31 4.47 4.08 3.52 3.03 2.97 2.66 3.95 51.85 8.82 2.20 2.38 2.72 2.78 2.83 2.83 2.83 2.85 2.85 2.87 2.87 2.86 2.90 2.90 2.90 2.90 2.90 2.90 2.90 2.90 2.94 2.93 2.93 2.93 2.93 2.93 2.93 2.93 2.99 2.99 2.99 2.99 2.99 2.98 2.98 2.98 2.98 2.98 3.00 3.00 3.00 3.02 3.02 3.02 3.08 3.08 3.11 3.10 3.10 3.13 3.13 3.12 3.12 3.12 3.12 3.12 3.12 3.12 3.12 3.12 3.16 3.16 3.16 3.18 3.18 3.21 3.21 3.21 3.26 3.25 3.25 3.25 3.28 3.28 3.30 3.30 3.33 3.33 3.35 3.35 3.38 3.38 3.38 3.40 3.43 3.43 3.46 3.46 3.46 3.49 3.49 3.49 3.58 3.58 3.61 3.61 3.61 3.64 3.64 3.63 3.70 3.70 3.70 3.73 3.73 3.77 3.76 3.76 3.87 3.87 3.87 3.91 3.91 3.94 3.94 3.94 4.02 4.02 4.02 4.06 4.06 4.10 4.10 4.10 4.14 4.14 4.14 4.13 4.13 4.13 4.13 4.13
